# .PCD v0.7 - Point Cloud Data file format
VERSION 0.7
FIELDS x y z
SIZE 4 4 4
TYPE F F F
COUNT 1 1 1
WIDTH 1304
HEIGHT 1
VIEWPOINT 0 0 0 1 0 0 0
POINTS 1304
DATA ascii
-0.036709368 -0.092984647 0.27251104
-0.036336686 -0.092984647 0.27251104
-0.035964001 -0.092984647 0.27251104
-0.035591319 -0.092984647 0.27251104
-0.035218634 -0.092984647 0.27251104
-0.034845948 -0.092984647 0.27251104
-0.034473266 -0.092984647 0.27251104
-0.034137532 -0.093085401 0.27280632
-0.034137603 -0.094114162 0.27582133
-0.034137677 -0.095165923 0.27890372
-0.034137722 -0.09624137 0.28205556
-0.049007934 -0.092611954 0.27251101
-0.048635252 -0.092611954 0.27251101
-0.048262566 -0.092611954 0.27251101
-0.047889885 -0.092611954 0.27251101
-0.047517199 -0.092611954 0.27251101
-0.047144514 -0.092611954 0.27251101
-0.046771832 -0.092611954 0.27251101
-0.046399146 -0.092611954 0.27251101
-0.046026465 -0.092611954 0.27251101
-0.045653779 -0.092611954 0.27251101
-0.045281097 -0.092611954 0.27251101
-0.044908412 -0.092611954 0.27251101
-0.044535726 -0.092611954 0.27251101
-0.044163045 -0.092611954 0.27251101
-0.043790359 -0.092611954 0.27251101
-0.043417677 -0.092611954 0.27251101
-0.043044992 -0.092611954 0.27251101
-0.042672306 -0.092611954 0.27251101
-0.042299625 -0.092611954 0.27251101
-0.041926939 -0.092611954 0.27251101
-0.041554257 -0.092611954 0.27251101
-0.041181572 -0.092611954 0.27251101
-0.04080889 -0.092611954 0.27251101
-0.040436205 -0.092611954 0.27251101
-0.040063519 -0.092611954 0.27251101
-0.039690837 -0.092611954 0.27251101
-0.039318152 -0.092611954 0.27251101
-0.03894547 -0.092611954 0.27251101
-0.038572785 -0.092611954 0.27251101
-0.038200103 -0.092611954 0.27251101
-0.037827417 -0.092611954 0.27251101
-0.037454732 -0.092611954 0.27251101
-0.03708205 -0.092611954 0.27251101
-0.036709365 -0.092611954 0.27251101
-0.036336683 -0.092611954 0.27251101
-0.035963997 -0.092611954 0.27251101
-0.035591315 -0.092611954 0.27251101
-0.03521863 -0.092611954 0.27251101
-0.034845944 -0.092611954 0.27251101
-0.034473263 -0.092611954 0.27251101
-0.03413754 -0.092712335 0.27280638
-0.034137607 -0.093736961 0.27582136
-0.034137677 -0.094784506 0.27890375
-0.034137733 -0.095855668 0.28205565
-0.04900793 -0.092239261 0.27251098
-0.048635244 -0.092239261 0.27251098
-0.048262563 -0.092239261 0.27251098
-0.047889877 -0.092239261 0.27251098
-0.047517195 -0.092239261 0.27251098
-0.04714451 -0.092239261 0.27251098
-0.046771824 -0.092239261 0.27251098
-0.046399143 -0.092239261 0.27251098
-0.046026457 -0.092239261 0.27251098
-0.045653775 -0.092239261 0.27251098
-0.04528109 -0.092239261 0.27251098
-0.044908408 -0.092239261 0.27251098
-0.044535723 -0.092239261 0.27251098
-0.044163037 -0.092239261 0.27251098
-0.043790355 -0.092239261 0.27251098
-0.04341767 -0.092239261 0.27251098
-0.043044988 -0.092239261 0.27251098
-0.042672303 -0.092239261 0.27251098
-0.042299621 -0.092239261 0.27251098
-0.041926935 -0.092239261 0.27251098
-0.041554254 -0.092239261 0.27251098
-0.041181568 -0.092239261 0.27251098
-0.040808883 -0.092239261 0.27251098
-0.040436201 -0.092239261 0.27251098
-0.040063515 -0.092239261 0.27251098
-0.039690834 -0.092239261 0.27251098
-0.039318148 -0.092239261 0.27251098
-0.038945466 -0.092239261 0.27251098
-0.038572781 -0.092239261 0.27251098
-0.038200095 -0.092239261 0.27251098
-0.037827414 -0.092239261 0.27251098
-0.037454728 -0.092239261 0.27251098
-0.037082046 -0.092239261 0.27251098
-0.036709361 -0.092239261 0.27251098
-0.036336679 -0.092239261 0.27251098
-0.035963994 -0.092239261 0.27251098
-0.035591308 -0.092239261 0.27251098
-0.035218626 -0.092239261 0.27251098
-0.034845941 -0.092239261 0.27251098
-0.034473259 -0.092239261 0.27251098
-0.034137543 -0.092339255 0.27280641
-0.034137614 -0.093359776 0.27582142
-0.034137685 -0.094403103 0.27890381
-0.034137741 -0.095469952 0.28205571
-0.049007919 -0.091866553 0.27251092
-0.048635233 -0.091866553 0.27251092
-0.048262551 -0.091866553 0.27251092
-0.047889866 -0.091866553 0.27251092
-0.047517184 -0.091866553 0.27251092
-0.047144499 -0.091866553 0.27251092
-0.046771817 -0.091866553 0.27251092
-0.046399131 -0.091866553 0.27251092
-0.04602645 -0.091866553 0.27251092
-0.045653764 -0.091866553 0.27251092
-0.045281082 -0.091866553 0.27251092
-0.044908397 -0.091866553 0.27251092
-0.044535711 -0.091866553 0.27251092
-0.04416303 -0.091866553 0.27251092
-0.043790344 -0.091866553 0.27251092
-0.043417662 -0.091866553 0.27251092
-0.043044977 -0.091866553 0.27251092
-0.042672295 -0.091866553 0.27251092
-0.04229961 -0.091866553 0.27251092
-0.041926928 -0.091866553 0.27251092
-0.041554242 -0.091866553 0.27251092
-0.041181561 -0.091866553 0.27251092
-0.040808875 -0.091866553 0.27251092
-0.04043619 -0.091866553 0.27251092
-0.040063508 -0.091866553 0.27251092
-0.039690822 -0.091866553 0.27251092
-0.039318141 -0.091866553 0.27251092
-0.038945455 -0.091866553 0.27251092
-0.038572773 -0.091866553 0.27251092
-0.038200088 -0.091866553 0.27251092
-0.037827406 -0.091866553 0.27251092
-0.037454721 -0.091866553 0.27251092
-0.037082039 -0.091866553 0.27251092
-0.036709353 -0.091866553 0.27251092
-0.036336668 -0.091866553 0.27251092
-0.035963986 -0.091866553 0.27251092
-0.035591301 -0.091866553 0.27251092
-0.035218619 -0.091866553 0.27251092
-0.034845933 -0.091866553 0.27251092
-0.034473252 -0.091866553 0.27251092
-0.034137551 -0.091966189 0.27280647
-0.034137622 -0.092982583 0.27582148
-0.034137692 -0.094021693 0.27890387
-0.034137748 -0.095084235 0.28205577
-0.049007915 -0.09149386 0.27251089
-0.048635229 -0.09149386 0.27251089
-0.048262544 -0.09149386 0.27251089
-0.047889862 -0.09149386 0.27251089
-0.047517177 -0.09149386 0.27251089
-0.047144495 -0.09149386 0.27251089
-0.046771809 -0.09149386 0.27251089
-0.046399128 -0.09149386 0.27251089
-0.046026442 -0.09149386 0.27251089
-0.04565376 -0.09149386 0.27251089
-0.045281075 -0.09149386 0.27251089
-0.044908393 -0.09149386 0.27251089
-0.044535708 -0.09149386 0.27251089
-0.044163026 -0.09149386 0.27251089
-0.04379034 -0.09149386 0.27251089
-0.043417659 -0.09149386 0.27251089
-0.043044973 -0.09149386 0.27251089
-0.042672288 -0.09149386 0.27251089
-0.042299606 -0.09149386 0.27251089
-0.04192692 -0.09149386 0.27251089
-0.041554239 -0.09149386 0.27251089
-0.041181553 -0.09149386 0.27251089
-0.040808871 -0.09149386 0.27251089
-0.040436186 -0.09149386 0.27251089
-0.040063504 -0.09149386 0.27251089
-0.039690819 -0.09149386 0.27251089
-0.039318137 -0.09149386 0.27251089
-0.038945451 -0.09149386 0.27251089
-0.03857277 -0.09149386 0.27251089
-0.038200084 -0.09149386 0.27251089
-0.037827402 -0.09149386 0.27251089
-0.037454717 -0.09149386 0.27251089
-0.037082031 -0.09149386 0.27251089
-0.03670935 -0.09149386 0.27251089
-0.036336664 -0.09149386 0.27251089
-0.035963982 -0.09149386 0.27251089
-0.035591297 -0.09149386 0.27251089
-0.035218615 -0.09149386 0.27251089
-0.03484593 -0.09149386 0.27251089
-0.034473248 -0.09149386 0.27251089
-0.034137558 -0.091593117 0.27280653
-0.034137629 -0.09260539 0.27582154
-0.0341377 -0.093640283 0.27890393
-0.034137756 -0.094698519 0.28205582
-0.049007908 -0.091121167 0.27251086
-0.048635226 -0.091121167 0.27251086
-0.04826254 -0.091121167 0.27251086
-0.047889858 -0.091121167 0.27251086
-0.047517173 -0.091121167 0.27251086
-0.047144488 -0.091121167 0.27251086
-0.046771806 -0.091121167 0.27251086
-0.04639912 -0.091121167 0.27251086
-0.046026438 -0.091121167 0.27251086
-0.045653753 -0.091121167 0.27251086
-0.045281071 -0.091121167 0.27251086
-0.044908386 -0.091121167 0.27251086
-0.044535704 -0.091121167 0.27251086
-0.044163018 -0.091121167 0.27251086
-0.043790337 -0.091121167 0.27251086
-0.043417651 -0.091121167 0.27251086
-0.043044969 -0.091121167 0.27251086
-0.042672284 -0.091121167 0.27251086
-0.042299602 -0.091121167 0.27251086
-0.041926917 -0.091121167 0.27251086
-0.041554235 -0.091121167 0.27251086
-0.041181549 -0.091121167 0.27251086
-0.040808868 -0.091121167 0.27251086
-0.040436182 -0.091121167 0.27251086
-0.0400635 -0.091121167 0.27251086
-0.039690815 -0.091121167 0.27251086
-0.039318133 -0.091121167 0.27251086
-0.038945448 -0.091121167 0.27251086
-0.038572762 -0.091121167 0.27251086
-0.03820008 -0.091121167 0.27251086
-0.037827395 -0.091121167 0.27251086
-0.037454713 -0.091121167 0.27251086
-0.037082028 -0.091121167 0.27251086
-0.036709346 -0.091121167 0.27251086
-0.03633666 -0.091121167 0.27251086
-0.035963979 -0.091121167 0.27251086
-0.035591293 -0.091121167 0.27251086
-0.035218611 -0.091121167 0.27251086
-0.034845926 -0.091121167 0.27251086
-0.034473244 -0.091121167 0.27251086
-0.034137566 -0.091220051 0.27280658
-0.034137633 -0.092228189 0.27582157
-0.034137707 -0.09325888 0.27890399
-0.034137763 -0.094312795 0.28205588
-0.049007904 -0.090748474 0.27251083
-0.048635218 -0.090748474 0.27251083
-0.048262537 -0.090748474 0.27251083
-0.047889851 -0.090748474 0.27251083
-0.047517169 -0.090748474 0.27251083
-0.047144484 -0.090748474 0.27251083
-0.046771802 -0.090748474 0.27251083
-0.046399117 -0.090748474 0.27251083
-0.046026435 -0.090748474 0.27251083
-0.045653749 -0.090748474 0.27251083
-0.045281067 -0.090748474 0.27251083
-0.044908382 -0.090748474 0.27251083
-0.0445357 -0.090748474 0.27251083
-0.044163015 -0.090748474 0.27251083
-0.043790329 -0.090748474 0.27251083
-0.043417647 -0.090748474 0.27251083
-0.043044962 -0.090748474 0.27251083
-0.04267228 -0.090748474 0.27251083
-0.042299595 -0.090748474 0.27251083
-0.041926913 -0.090748474 0.27251083
-0.041554227 -0.090748474 0.27251083
-0.041181546 -0.090748474 0.27251083
-0.04080886 -0.090748474 0.27251083
-0.040436178 -0.090748474 0.27251083
-0.040063493 -0.090748474 0.27251083
-0.039690811 -0.090748474 0.27251083
-0.039318126 -0.090748474 0.27251083
-0.038945444 -0.090748474 0.27251083
-0.038572758 -0.090748474 0.27251083
-0.038200077 -0.090748474 0.27251083
-0.037827391 -0.090748474 0.27251083
-0.037454709 -0.090748474 0.27251083
-0.037082024 -0.090748474 0.27251083
-0.036709342 -0.090748474 0.27251083
-0.036336657 -0.090748474 0.27251083
-0.035963975 -0.090748474 0.27251083
-0.035591289 -0.090748474 0.27251083
-0.035218608 -0.090748474 0.27251083
-0.034845922 -0.090748474 0.27251083
-0.03447324 -0.090748474 0.27251083
-0.034137569 -0.090846971 0.27280661
-0.03413764 -0.091850996 0.27582163
-0.034137711 -0.092877463 0.27890402
-0.034137767 -0.093927078 0.28205594
-0.049007896 -0.090375781 0.2725108
-0.048635215 -0.090375781 0.2725108
-0.048262529 -0.090375781 0.2725108
-0.047889847 -0.090375781 0.2725108
-0.047517162 -0.090375781 0.2725108
-0.04714448 -0.090375781 0.2725108
-0.046771795 -0.090375781 0.2725108
-0.046399113 -0.090375781 0.2725108
-0.046026427 -0.090375781 0.2725108
-0.045653746 -0.090375781 0.2725108
-0.04528106 -0.090375781 0.2725108
-0.044908378 -0.090375781 0.2725108
-0.044535693 -0.090375781 0.2725108
-0.044163011 -0.090375781 0.2725108
-0.043790326 -0.090375781 0.2725108
-0.043417644 -0.090375781 0.2725108
-0.043044958 -0.090375781 0.2725108
-0.042672276 -0.090375781 0.2725108
-0.042299591 -0.090375781 0.2725108
-0.041926909 -0.090375781 0.2725108
-0.041554224 -0.090375781 0.2725108
-0.041181542 -0.090375781 0.2725108
-0.040808856 -0.090375781 0.2725108
-0.040436175 -0.090375781 0.2725108
-0.040063489 -0.090375781 0.2725108
-0.039690807 -0.090375781 0.2725108
-0.039318122 -0.090375781 0.2725108
-0.03894544 -0.090375781 0.2725108
-0.038572755 -0.090375781 0.2725108
-0.038200073 -0.090375781 0.2725108
-0.037827387 -0.090375781 0.2725108
-0.037454706 -0.090375781 0.2725108
-0.03708202 -0.090375781 0.2725108
-0.036709338 -0.090375781 0.2725108
-0.036336653 -0.090375781 0.2725108
-0.035963971 -0.090375781 0.2725108
-0.035591286 -0.090375781 0.2725108
-0.035218604 -0.090375781 0.2725108
-0.034845918 -0.090375781 0.2725108
-0.034473237 -0.090375781 0.2725108
-0.034137577 -0.090473905 0.27280667
-0.034137648 -0.091473803 0.27582169
-0.034137718 -0.092496052 0.27890408
-0.034137774 -0.093541361 0.282056
-0.049007885 -0.090003073 0.27251074
-0.048635203 -0.090003073 0.27251074
-0.048262518 -0.090003073 0.27251074
-0.047889836 -0.090003073 0.27251074
-0.047517151 -0.090003073 0.27251074
-0.047144469 -0.090003073 0.27251074
-0.046771783 -0.090003073 0.27251074
-0.046399102 -0.090003073 0.27251074
-0.046026416 -0.090003073 0.27251074
-0.045653734 -0.090003073 0.27251074
-0.045281053 -0.090003073 0.27251074
-0.044908367 -0.090003073 0.27251074
-0.044535685 -0.090003073 0.27251074
-0.044163 -0.090003073 0.27251074
-0.043790318 -0.090003073 0.27251074
-0.043417633 -0.090003073 0.27251074
-0.043044951 -0.090003073 0.27251074
-0.042672265 -0.090003073 0.27251074
-0.042299584 -0.090003073 0.27251074
-0.041926898 -0.090003073 0.27251074
-0.041554216 -0.090003073 0.27251074
-0.041181531 -0.090003073 0.27251074
-0.040808849 -0.090003073 0.27251074
-0.040436164 -0.090003073 0.27251074
-0.040063482 -0.090003073 0.27251074
-0.039690796 -0.090003073 0.27251074
-0.039318115 -0.090003073 0.27251074
-0.038945429 -0.090003073 0.27251074
-0.038572747 -0.090003073 0.27251074
-0.038200062 -0.090003073 0.27251074
-0.03782738 -0.090003073 0.27251074
-0.037454698 -0.090003073 0.27251074
-0.037082013 -0.090003073 0.27251074
-0.036709331 -0.090003073 0.27251074
-0.036336645 -0.090003073 0.27251074
-0.035963964 -0.090003073 0.27251074
-0.035591278 -0.090003073 0.27251074
-0.035218596 -0.090003073 0.27251074
-0.034845911 -0.090003073 0.27251074
-0.034473229 -0.090003073 0.27251074
-0.034137584 -0.09010084 0.27280673
-0.034137655 -0.091096617 0.27582175
-0.034137726 -0.09211465 0.27890414
-0.034137785 -0.093155652 0.28205609
-0.049007881 -0.08963038 0.27251071
-0.048635196 -0.08963038 0.27251071
-0.048262514 -0.08963038 0.27251071
-0.047889829 -0.08963038 0.27251071
-0.047517147 -0.08963038 0.27251071
-0.047144465 -0.08963038 0.27251071
-0.04677178 -0.08963038 0.27251071
-0.046399098 -0.08963038 0.27251071
-0.046026412 -0.08963038 0.27251071
-0.045653731 -0.08963038 0.27251071
-0.045281045 -0.08963038 0.27251071
-0.044908363 -0.08963038 0.27251071
-0.044535678 -0.08963038 0.27251071
-0.044162996 -0.08963038 0.27251071
-0.043790311 -0.08963038 0.27251071
-0.043417629 -0.08963038 0.27251071
-0.043044943 -0.08963038 0.27251071
-0.042672262 -0.08963038 0.27251071
-0.042299576 -0.08963038 0.27251071
-0.041926894 -0.08963038 0.27251071
-0.041554213 -0.08963038 0.27251071
-0.041181527 -0.08963038 0.27251071
-0.040808845 -0.08963038 0.27251071
-0.04043616 -0.08963038 0.27251071
-0.040063478 -0.08963038 0.27251071
-0.039690793 -0.08963038 0.27251071
-0.039318111 -0.08963038 0.27251071
-0.038945425 -0.08963038 0.27251071
-0.038572744 -0.08963038 0.27251071
-0.038200058 -0.08963038 0.27251071
-0.037827376 -0.08963038 0.27251071
-0.037454691 -0.08963038 0.27251071
-0.037082009 -0.08963038 0.27251071
-0.036709324 -0.08963038 0.27251071
-0.036336642 -0.08963038 0.27251071
-0.03596396 -0.08963038 0.27251071
-0.035591274 -0.08963038 0.27251071
-0.035218593 -0.08963038 0.27251071
-0.034845907 -0.08963038 0.27251071
-0.034473225 -0.08963038 0.27251071
-0.034137588 -0.089727759 0.27280676
-0.034137659 -0.090719409 0.27582178
-0.034137733 -0.09173324 0.2789042
-0.034137793 -0.092769936 0.28205615
-0.049007874 -0.089257687 0.27251068
-0.048635192 -0.089257687 0.27251068
-0.04826251 -0.089257687 0.27251068
-0.047889825 -0.089257687 0.27251068
-0.047517143 -0.089257687 0.27251068
-0.047144458 -0.089257687 0.27251068
-0.046771776 -0.089257687 0.27251068
-0.04639909 -0.089257687 0.27251068
-0.046026409 -0.089257687 0.27251068
-0.045653723 -0.089257687 0.27251068
-0.045281041 -0.089257687 0.27251068
-0.044908356 -0.089257687 0.27251068
-0.044535674 -0.089257687 0.27251068
-0.044162992 -0.089257687 0.27251068
-0.043790307 -0.089257687 0.27251068
-0.043417625 -0.089257687 0.27251068
-0.04304494 -0.089257687 0.27251068
-0.042672258 -0.089257687 0.27251068
-0.042299572 -0.089257687 0.27251068
-0.041926891 -0.089257687 0.27251068
-0.041554205 -0.089257687 0.27251068
-0.041181523 -0.089257687 0.27251068
-0.040808838 -0.089257687 0.27251068
-0.040436156 -0.089257687 0.27251068
-0.040063471 -0.089257687 0.27251068
-0.039690789 -0.089257687 0.27251068
-0.039318107 -0.089257687 0.27251068
-0.038945422 -0.089257687 0.27251068
-0.03857274 -0.089257687 0.27251068
-0.038200054 -0.089257687 0.27251068
-0.037827373 -0.089257687 0.27251068
-0.037454687 -0.089257687 0.27251068
-0.037082005 -0.089257687 0.27251068
-0.03670932 -0.089257687 0.27251068
-0.036336638 -0.089257687 0.27251068
-0.035963953 -0.089257687 0.27251068
-0.035591271 -0.089257687 0.27251068
-0.035218589 -0.089257687 0.27251068
-0.034845904 -0.089257687 0.27251068
-0.034473222 -0.089257687 0.27251068
-0.034137595 -0.089354686 0.27280682
-0.034137666 -0.090342224 0.27582183
-0.034137737 -0.091351822 0.27890423
-0.0341378 -0.092384219 0.28205621
-0.04900787 -0.088884994 0.27251065
-0.048635188 -0.088884994 0.27251065
-0.048262503 -0.088884994 0.27251065
-0.047889821 -0.088884994 0.27251065
-0.047517136 -0.088884994 0.27251065
-0.047144454 -0.088884994 0.27251065
-0.046771768 -0.088884994 0.27251065
-0.046399087 -0.088884994 0.27251065
-0.046026401 -0.088884994 0.27251065
-0.045653719 -0.088884994 0.27251065
-0.045281038 -0.088884994 0.27251065
-0.044908352 -0.088884994 0.27251065
-0.04453567 -0.088884994 0.27251065
-0.044162985 -0.088884994 0.27251065
-0.043790303 -0.088884994 0.27251065
-0.043417618 -0.088884994 0.27251065
-0.043044936 -0.088884994 0.27251065
-0.04267225 -0.088884994 0.27251065
-0.042299569 -0.088884994 0.27251065
-0.041926887 -0.088884994 0.27251065
-0.041554201 -0.088884994 0.27251065
-0.04118152 -0.088884994 0.27251065
-0.040808834 -0.088884994 0.27251065
-0.040436152 -0.088884994 0.27251065
-0.040063467 -0.088884994 0.27251065
-0.039690785 -0.088884994 0.27251065
-0.0393181 -0.088884994 0.27251065
-0.038945418 -0.088884994 0.27251065
-0.038572736 -0.088884994 0.27251065
-0.038200051 -0.088884994 0.27251065
-0.037827369 -0.088884994 0.27251065
-0.037454683 -0.088884994 0.27251065
-0.037082002 -0.088884994 0.27251065
-0.036709316 -0.088884994 0.27251065
-0.036336634 -0.088884994 0.27251065
-0.035963949 -0.088884994 0.27251065
-0.035591267 -0.088884994 0.27251065
-0.035218585 -0.088884994 0.27251065
-0.0348459 -0.088884994 0.27251065
-0.034473218 -0.088884994 0.27251065
-0.034137603 -0.088981621 0.27280688
-0.034137674 -0.089965031 0.27582189
-0.034137744 -0.090970412 0.27890429
-0.034137808 -0.091998503 0.28205627
-0.049007867 -0.088512301 0.27251062
-0.048635181 -0.088512301 0.27251062
-0.048262499 -0.088512301 0.27251062
-0.047889814 -0.088512301 0.27251062
-0.047517132 -0.088512301 0.27251062
-0.047144447 -0.088512301 0.27251062
-0.046771765 -0.088512301 0.27251062
-0.046399083 -0.088512301 0.27251062
-0.046026397 -0.088512301 0.27251062
-0.045653716 -0.088512301 0.27251062
-0.04528103 -0.088512301 0.27251062
-0.044908348 -0.088512301 0.27251062
-0.044535663 -0.088512301 0.27251062
-0.044162981 -0.088512301 0.27251062
-0.043790296 -0.088512301 0.27251062
-0.043417614 -0.088512301 0.27251062
-0.043044932 -0.088512301 0.27251062
-0.042672247 -0.088512301 0.27251062
-0.042299565 -0.088512301 0.27251062
-0.041926879 -0.088512301 0.27251062
-0.041554198 -0.088512301 0.27251062
-0.041181512 -0.088512301 0.27251062
-0.04080883 -0.088512301 0.27251062
-0.040436149 -0.088512301 0.27251062
-0.040063463 -0.088512301 0.27251062
-0.039690781 -0.088512301 0.27251062
-0.039318096 -0.088512301 0.27251062
-0.038945414 -0.088512301 0.27251062
-0.038572729 -0.088512301 0.27251062
-0.038200047 -0.088512301 0.27251062
-0.037827365 -0.088512301 0.27251062
-0.03745468 -0.088512301 0.27251062
-0.037081998 -0.088512301 0.27251062
-0.036709312 -0.088512301 0.27251062
-0.036336631 -0.088512301 0.27251062
-0.035963945 -0.088512301 0.27251062
-0.035591263 -0.088512301 0.27251062
-0.035218582 -0.088512301 0.27251062
-0.034845896 -0.088512301 0.27251062
-0.034473214 -0.088512301 0.27251062
-0.034137607 -0.088608541 0.27280691
-0.034137681 -0.089587837 0.27582195
-0.034137752 -0.090589009 0.27890435
-0.034137815 -0.091612779 0.28205633
-0.049007855 -0.088139601 0.27251056
-0.04863517 -0.088139601 0.27251056
-0.048262488 -0.088139601 0.27251056
-0.047889803 -0.088139601 0.27251056
-0.047517121 -0.088139601 0.27251056
-0.047144439 -0.088139601 0.27251056
-0.046771754 -0.088139601 0.27251056
-0.046399072 -0.088139601 0.27251056
-0.046026386 -0.088139601 0.27251056
-0.045653705 -0.088139601 0.27251056
-0.045281023 -0.088139601 0.27251056
-0.044908337 -0.088139601 0.27251056
-0.044535656 -0.088139601 0.27251056
-0.04416297 -0.088139601 0.27251056
-0.043790288 -0.088139601 0.27251056
-0.043417607 -0.088139601 0.27251056
-0.043044921 -0.088139601 0.27251056
-0.042672239 -0.088139601 0.27251056
-0.042299554 -0.088139601 0.27251056
-0.041926872 -0.088139601 0.27251056
-0.041554186 -0.088139601 0.27251056
-0.041181505 -0.088139601 0.27251056
-0.040808823 -0.088139601 0.27251056
-0.040436137 -0.088139601 0.27251056
-0.040063456 -0.088139601 0.27251056
-0.03969077 -0.088139601 0.27251056
-0.039318088 -0.088139601 0.27251056
-0.038945407 -0.088139601 0.27251056
-0.038572721 -0.088139601 0.27251056
-0.038200039 -0.088139601 0.27251056
-0.037827354 -0.088139601 0.27251056
-0.037454672 -0.088139601 0.27251056
-0.037081987 -0.088139601 0.27251056
-0.036709305 -0.088139601 0.27251056
-0.036336623 -0.088139601 0.27251056
-0.035963938 -0.088139601 0.27251056
-0.035591256 -0.088139601 0.27251056
-0.03521857 -0.088139601 0.27251056
-0.034845889 -0.088139601 0.27251056
-0.034473207 -0.088139601 0.27251056
-0.034137614 -0.088235475 0.27280697
-0.034137685 -0.089210637 0.27582198
-0.034137759 -0.090207599 0.27890441
-0.034137823 -0.091227062 0.28205639
-0.049007848 -0.087766908 0.27251053
-0.048635166 -0.087766908 0.27251053
-0.048262481 -0.087766908 0.27251053
-0.047889799 -0.087766908 0.27251053
-0.047517117 -0.087766908 0.27251053
-0.047144432 -0.087766908 0.27251053
-0.04677175 -0.087766908 0.27251053
-0.046399064 -0.087766908 0.27251053
-0.046026383 -0.087766908 0.27251053
-0.045653701 -0.087766908 0.27251053
-0.045281015 -0.087766908 0.27251053
-0.044908334 -0.087766908 0.27251053
-0.044535648 -0.087766908 0.27251053
-0.044162966 -0.087766908 0.27251053
-0.043790285 -0.087766908 0.27251053
-0.043417599 -0.087766908 0.27251053
-0.043044917 -0.087766908 0.27251053
-0.042672232 -0.087766908 0.27251053
-0.04229955 -0.087766908 0.27251053
-0.041926868 -0.087766908 0.27251053
-0.041554183 -0.087766908 0.27251053
-0.041181501 -0.087766908 0.27251053
-0.040808816 -0.087766908 0.27251053
-0.040436134 -0.087766908 0.27251053
-0.040063452 -0.087766908 0.27251053
-0.039690766 -0.087766908 0.27251053
-0.039318085 -0.087766908 0.27251053
-0.038945399 -0.087766908 0.27251053
-0.038572717 -0.087766908 0.27251053
-0.038200036 -0.087766908 0.27251053
-0.03782735 -0.087766908 0.27251053
-0.037454668 -0.087766908 0.27251053
-0.037081983 -0.087766908 0.27251053
-0.036709301 -0.087766908 0.27251053
-0.036336619 -0.087766908 0.27251053
-0.035963934 -0.087766908 0.27251053
-0.035591252 -0.087766908 0.27251053
-0.035218567 -0.087766908 0.27251053
-0.034845885 -0.087766908 0.27251053
-0.034473203 -0.087766908 0.27251053
-0.034137622 -0.087862402 0.27280703
-0.034137692 -0.088833444 0.27582204
-0.034137767 -0.089826189 0.27890447
-0.03413783 -0.090841345 0.28205645
-0.049007844 -0.087394215 0.2725105
-0.048635159 -0.087394215 0.2725105
-0.048262477 -0.087394215 0.2725105
-0.047889795 -0.087394215 0.2725105
-0.04751711 -0.087394215 0.2725105
-0.047144428 -0.087394215 0.2725105
-0.046771742 -0.087394215 0.2725105
-0.046399061 -0.087394215 0.2725105
-0.046026379 -0.087394215 0.2725105
-0.045653693 -0.087394215 0.2725105
-0.045281012 -0.087394215 0.2725105
-0.04490833 -0.087394215 0.2725105
-0.044535644 -0.087394215 0.2725105
-0.044162963 -0.087394215 0.2725105
-0.043790277 -0.087394215 0.2725105
-0.043417595 -0.087394215 0.2725105
-0.043044914 -0.087394215 0.2725105
-0.042672228 -0.087394215 0.2725105
-0.042299546 -0.087394215 0.2725105
-0.041926861 -0.087394215 0.2725105
-0.041554179 -0.087394215 0.2725105
-0.041181497 -0.087394215 0.2725105
-0.040808812 -0.087394215 0.2725105
-0.04043613 -0.087394215 0.2725105
-0.040063445 -0.087394215 0.2725105
-0.039690763 -0.087394215 0.2725105
-0.039318081 -0.087394215 0.2725105
-0.038945395 -0.087394215 0.2725105
-0.038572714 -0.087394215 0.2725105
-0.038200028 -0.087394215 0.2725105
-0.037827346 -0.087394215 0.2725105
-0.037454665 -0.087394215 0.2725105
-0.037081979 -0.087394215 0.2725105
-0.036709297 -0.087394215 0.2725105
-0.036336616 -0.087394215 0.2725105
-0.03596393 -0.087394215 0.2725105
-0.035591248 -0.087394215 0.2725105
-0.035218563 -0.087394215 0.2725105
-0.034845881 -0.087394215 0.2725105
-0.034473199 -0.087394215 0.2725105
-0.034137629 -0.087489329 0.27280709
-0.0341377 -0.088456251 0.2758221
-0.034137771 -0.089444771 0.2789045
-0.034137841 -0.090455636 0.28205654
-0.049007837 -0.087021522 0.27251047
-0.048635155 -0.087021522 0.27251047
-0.048262473 -0.087021522 0.27251047
-0.047889788 -0.087021522 0.27251047
-0.047517106 -0.087021522 0.27251047
-0.04714442 -0.087021522 0.27251047
-0.046771739 -0.087021522 0.27251047
-0.046399057 -0.087021522 0.27251047
-0.046026371 -0.087021522 0.27251047
-0.04565369 -0.087021522 0.27251047
-0.045281008 -0.087021522 0.27251047
-0.044908322 -0.087021522 0.27251047
-0.044535641 -0.087021522 0.27251047
-0.044162955 -0.087021522 0.27251047
-0.043790273 -0.087021522 0.27251047
-0.043417592 -0.087021522 0.27251047
-0.043044906 -0.087021522 0.27251047
-0.042672224 -0.087021522 0.27251047
-0.042299543 -0.087021522 0.27251047
-0.041926857 -0.087021522 0.27251047
-0.041554175 -0.087021522 0.27251047
-0.04118149 -0.087021522 0.27251047
-0.040808808 -0.087021522 0.27251047
-0.040436126 -0.087021522 0.27251047
-0.040063441 -0.087021522 0.27251047
-0.039690759 -0.087021522 0.27251047
-0.039318077 -0.087021522 0.27251047
-0.038945392 -0.087021522 0.27251047
-0.03857271 -0.087021522 0.27251047
-0.038200025 -0.087021522 0.27251047
-0.037827343 -0.087021522 0.27251047
-0.037454661 -0.087021522 0.27251047
-0.037081975 -0.087021522 0.27251047
-0.036709294 -0.087021522 0.27251047
-0.036336608 -0.087021522 0.27251047
-0.035963926 -0.087021522 0.27251047
-0.035591245 -0.087021522 0.27251047
-0.035218559 -0.087021522 0.27251047
-0.034845877 -0.087021522 0.27251047
-0.034473196 -0.087021522 0.27251047
-0.034137633 -0.087116256 0.27280712
-0.034137707 -0.088079058 0.27582216
-0.034137778 -0.089063361 0.27890456
-0.034137849 -0.090069912 0.2820566
-0.049007826 -0.086648822 0.27251041
-0.048635144 -0.086648822 0.27251041
-0.048262462 -0.086648822 0.27251041
-0.047889777 -0.086648822 0.27251041
-0.047517095 -0.086648822 0.27251041
-0.047144413 -0.086648822 0.27251041
-0.046771728 -0.086648822 0.27251041
-0.046399046 -0.086648822 0.27251041
-0.046026364 -0.086648822 0.27251041
-0.045653678 -0.086648822 0.27251041
-0.045280997 -0.086648822 0.27251041
-0.044908315 -0.086648822 0.27251041
-0.044535629 -0.086648822 0.27251041
-0.044162948 -0.086648822 0.27251041
-0.043790262 -0.086648822 0.27251041
-0.04341758 -0.086648822 0.27251041
-0.043044899 -0.086648822 0.27251041
-0.042672213 -0.086648822 0.27251041
-0.042299531 -0.086648822 0.27251041
-0.04192685 -0.086648822 0.27251041
-0.041554164 -0.086648822 0.27251041
-0.041181482 -0.086648822 0.27251041
-0.040808801 -0.086648822 0.27251041
-0.040436115 -0.086648822 0.27251041
-0.040063433 -0.086648822 0.27251041
-0.039690752 -0.086648822 0.27251041
-0.039318066 -0.086648822 0.27251041
-0.038945384 -0.086648822 0.27251041
-0.038572699 -0.086648822 0.27251041
-0.038200017 -0.086648822 0.27251041
-0.037827335 -0.086648822 0.27251041
-0.03745465 -0.086648822 0.27251041
-0.037081968 -0.086648822 0.27251041
-0.036709286 -0.086648822 0.27251041
-0.036336601 -0.086648822 0.27251041
-0.035963919 -0.086648822 0.27251041
-0.035591237 -0.086648822 0.27251041
-0.035218552 -0.086648822 0.27251041
-0.03484587 -0.086648822 0.27251041
-0.034473188 -0.086648822 0.27251041
-0.03413764 -0.086743183 0.27280718
-0.034137711 -0.08770185 0.27582219
-0.034137785 -0.088681959 0.27890462
-0.034137856 -0.089684196 0.28205666
-0.049007822 -0.086276129 0.27251038
-0.04863514 -0.086276129 0.27251038
-0.048262455 -0.086276129 0.27251038
-0.047889773 -0.086276129 0.27251038
-0.047517091 -0.086276129 0.27251038
-0.047144406 -0.086276129 0.27251038
-0.046771724 -0.086276129 0.27251038
-0.046399042 -0.086276129 0.27251038
-0.046026357 -0.086276129 0.27251038
-0.045653675 -0.086276129 0.27251038
-0.045280993 -0.086276129 0.27251038
-0.044908307 -0.086276129 0.27251038
-0.044535626 -0.086276129 0.27251038
-0.044162944 -0.086276129 0.27251038
-0.043790258 -0.086276129 0.27251038
-0.043417577 -0.086276129 0.27251038
-0.043044895 -0.086276129 0.27251038
-0.042672209 -0.086276129 0.27251038
-0.042299528 -0.086276129 0.27251038
-0.041926842 -0.086276129 0.27251038
-0.04155416 -0.086276129 0.27251038
-0.041181479 -0.086276129 0.27251038
-0.040808793 -0.086276129 0.27251038
-0.040436111 -0.086276129 0.27251038
-0.04006343 -0.086276129 0.27251038
-0.039690744 -0.086276129 0.27251038
-0.039318062 -0.086276129 0.27251038
-0.038945381 -0.086276129 0.27251038
-0.038572695 -0.086276129 0.27251038
-0.038200013 -0.086276129 0.27251038
-0.037827332 -0.086276129 0.27251038
-0.037454646 -0.086276129 0.27251038
-0.037081964 -0.086276129 0.27251038
-0.036709283 -0.086276129 0.27251038
-0.036336597 -0.086276129 0.27251038
-0.035963915 -0.086276129 0.27251038
-0.035591234 -0.086276129 0.27251038
-0.035218548 -0.086276129 0.27251038
-0.034845866 -0.086276129 0.27251038
-0.034473184 -0.086276129 0.27251038
-0.034137648 -0.086370111 0.27280724
-0.034137718 -0.087324657 0.27582225
-0.034137793 -0.088300548 0.27890468
-0.034137864 -0.089298479 0.28205672
-0.049007818 -0.085903436 0.27251035
-0.048635133 -0.085903436 0.27251035
-0.048262451 -0.085903436 0.27251035
-0.047889769 -0.085903436 0.27251035
-0.047517084 -0.085903436 0.27251035
-0.047144402 -0.085903436 0.27251035
-0.04677172 -0.085903436 0.27251035
-0.046399035 -0.085903436 0.27251035
-0.046026353 -0.085903436 0.27251035
-0.045653671 -0.085903436 0.27251035
-0.045280986 -0.085903436 0.27251035
-0.044908304 -0.085903436 0.27251035
-0.044535622 -0.085903436 0.27251035
-0.044162937 -0.085903436 0.27251035
-0.043790255 -0.085903436 0.27251035
-0.043417573 -0.085903436 0.27251035
-0.043044887 -0.085903436 0.27251035
-0.042672206 -0.085903436 0.27251035
-0.042299524 -0.085903436 0.27251035
-0.041926838 -0.085903436 0.27251035
-0.041554157 -0.085903436 0.27251035
-0.041181475 -0.085903436 0.27251035
-0.040808789 -0.085903436 0.27251035
-0.040436108 -0.085903436 0.27251035
-0.040063426 -0.085903436 0.27251035
-0.03969074 -0.085903436 0.27251035
-0.039318059 -0.085903436 0.27251035
-0.038945377 -0.085903436 0.27251035
-0.038572691 -0.085903436 0.27251035
-0.03820001 -0.085903436 0.27251035
-0.037827328 -0.085903436 0.27251035
-0.037454642 -0.085903436 0.27251035
-0.037081961 -0.085903436 0.27251035
-0.036709279 -0.085903436 0.27251035
-0.036336593 -0.085903436 0.27251035
-0.035963912 -0.085903436 0.27251035
-0.03559123 -0.085903436 0.27251035
-0.035218544 -0.085903436 0.27251035
-0.034845863 -0.085903436 0.27251035
-0.034473181 -0.085903436 0.27251035
-0.034137651 -0.08599703 0.27280727
-0.034137726 -0.086947463 0.27582231
-0.034137797 -0.087919131 0.27890471
-0.034137871 -0.088912755 0.28205678
-0.049007811 -0.085530743 0.27251032
-0.048635129 -0.085530743 0.27251032
-0.048262447 -0.085530743 0.27251032
-0.047889762 -0.085530743 0.27251032
-0.04751708 -0.085530743 0.27251032
-0.047144398 -0.085530743 0.27251032
-0.046771713 -0.085530743 0.27251032
-0.046399031 -0.085530743 0.27251032
-0.046026349 -0.085530743 0.27251032
-0.045653664 -0.085530743 0.27251032
-0.045280982 -0.085530743 0.27251032
-0.0449083 -0.085530743 0.27251032
-0.044535615 -0.085530743 0.27251032
-0.044162933 -0.085530743 0.27251032
-0.043790251 -0.085530743 0.27251032
-0.043417566 -0.085530743 0.27251032
-0.043044884 -0.085530743 0.27251032
-0.042672202 -0.085530743 0.27251032
-0.042299516 -0.085530743 0.27251032
-0.041926835 -0.085530743 0.27251032
-0.041554153 -0.085530743 0.27251032
-0.041181467 -0.085530743 0.27251032
-0.040808786 -0.085530743 0.27251032
-0.040436104 -0.085530743 0.27251032
-0.040063418 -0.085530743 0.27251032
-0.039690737 -0.085530743 0.27251032
-0.039318055 -0.085530743 0.27251032
-0.038945369 -0.085530743 0.27251032
-0.038572688 -0.085530743 0.27251032
-0.038200006 -0.085530743 0.27251032
-0.03782732 -0.085530743 0.27251032
-0.037454639 -0.085530743 0.27251032
-0.037081957 -0.085530743 0.27251032
-0.036709271 -0.085530743 0.27251032
-0.03633659 -0.085530743 0.27251032
-0.035963908 -0.085530743 0.27251032
-0.035591222 -0.085530743 0.27251032
-0.035218541 -0.085530743 0.27251032
-0.034845859 -0.085530743 0.27251032
-0.034473177 -0.085530743 0.27251032
-0.034137659 -0.085623965 0.27280733
-0.034137733 -0.08657027 0.27582237
-0.034137804 -0.087537721 0.27890477
-0.034137875 -0.088527039 0.28205684
-0.049007807 -0.08515805 0.27251029
-0.048635121 -0.08515805 0.27251029
-0.04826244 -0.08515805 0.27251029
-0.047889758 -0.08515805 0.27251029
-0.047517072 -0.08515805 0.27251029
-0.047144391 -0.08515805 0.27251029
-0.046771709 -0.08515805 0.27251029
-0.046399027 -0.08515805 0.27251029
-0.046026342 -0.08515805 0.27251029
-0.04565366 -0.08515805 0.27251029
-0.045280978 -0.08515805 0.27251029
-0.044908293 -0.08515805 0.27251029
-0.044535611 -0.08515805 0.27251029
-0.044162929 -0.08515805 0.27251029
-0.043790244 -0.08515805 0.27251029
-0.043417562 -0.08515805 0.27251029
-0.04304488 -0.08515805 0.27251029
-0.042672195 -0.08515805 0.27251029
-0.042299513 -0.08515805 0.27251029
-0.041926831 -0.08515805 0.27251029
-0.041554146 -0.08515805 0.27251029
-0.041181464 -0.08515805 0.27251029
-0.040808782 -0.08515805 0.27251029
-0.0404361 -0.08515805 0.27251029
-0.040063415 -0.08515805 0.27251029
-0.039690733 -0.08515805 0.27251029
-0.039318051 -0.08515805 0.27251029
-0.038945366 -0.08515805 0.27251029
-0.038572684 -0.08515805 0.27251029
-0.038200002 -0.08515805 0.27251029
-0.037827317 -0.08515805 0.27251029
-0.037454635 -0.08515805 0.27251029
-0.037081953 -0.08515805 0.27251029
-0.036709268 -0.08515805 0.27251029
-0.036336586 -0.08515805 0.27251029
-0.035963904 -0.08515805 0.27251029
-0.035591219 -0.08515805 0.27251029
-0.035218537 -0.08515805 0.27251029
-0.034845855 -0.08515805 0.27251029
-0.034473173 -0.08515805 0.27251029
-0.034137666 -0.085250892 0.27280739
-0.034137737 -0.08619307 0.2758224
-0.034137812 -0.087156311 0.27890483
-0.034137882 -0.088141315 0.2820569
-0.049007796 -0.08478535 0.27251023
-0.048635114 -0.08478535 0.27251023
-0.048262428 -0.08478535 0.27251023
-0.047889747 -0.08478535 0.27251023
-0.047517065 -0.08478535 0.27251023
-0.047144379 -0.08478535 0.27251023
-0.046771698 -0.08478535 0.27251023
-0.046399016 -0.08478535 0.27251023
-0.046026334 -0.08478535 0.27251023
-0.045653649 -0.08478535 0.27251023
-0.045280967 -0.08478535 0.27251023
-0.044908285 -0.08478535 0.27251023
-0.0445356 -0.08478535 0.27251023
-0.044162918 -0.08478535 0.27251023
-0.043790236 -0.08478535 0.27251023
-0.043417551 -0.08478535 0.27251023
-0.043044869 -0.08478535 0.27251023
-0.042672187 -0.08478535 0.27251023
-0.042299505 -0.08478535 0.27251023
-0.04192682 -0.08478535 0.27251023
-0.041554138 -0.08478535 0.27251023
-0.041181456 -0.08478535 0.27251023
-0.040808771 -0.08478535 0.27251023
-0.040436089 -0.08478535 0.27251023
-0.040063407 -0.08478535 0.27251023
-0.039690726 -0.08478535 0.27251023
-0.03931804 -0.08478535 0.27251023
-0.038945358 -0.08478535 0.27251023
-0.038572676 -0.08478535 0.27251023
-0.038199991 -0.08478535 0.27251023
-0.037827309 -0.08478535 0.27251023
-0.037454627 -0.08478535 0.27251023
-0.037081946 -0.08478535 0.27251023
-0.03670926 -0.08478535 0.27251023
-0.036336578 -0.08478535 0.27251023
-0.035963897 -0.08478535 0.27251023
-0.035591211 -0.08478535 0.27251023
-0.035218529 -0.08478535 0.27251023
-0.034845848 -0.08478535 0.27251023
-0.034473162 -0.08478535 0.27251023
-0.03413767 -0.084877811 0.27280742
-0.034137744 -0.085815877 0.27582246
-0.034137819 -0.086774901 0.27890489
-0.03413789 -0.087755598 0.28205696
-0.049007788 -0.084412657 0.2725102
-0.048635107 -0.084412657 0.2725102
-0.048262425 -0.084412657 0.2725102
-0.047889743 -0.084412657 0.2725102
-0.047517058 -0.084412657 0.2725102
-0.047144376 -0.084412657 0.2725102
-0.046771694 -0.084412657 0.2725102
-0.046399008 -0.084412657 0.2725102
-0.046026327 -0.084412657 0.2725102
-0.045653645 -0.084412657 0.2725102
-0.045280963 -0.084412657 0.2725102
-0.044908278 -0.084412657 0.2725102
-0.044535596 -0.084412657 0.2725102
-0.044162914 -0.084412657 0.2725102
-0.043790229 -0.084412657 0.2725102
-0.043417547 -0.084412657 0.2725102
-0.043044865 -0.084412657 0.2725102
-0.042672183 -0.084412657 0.2725102
-0.042299498 -0.084412657 0.2725102
-0.041926816 -0.084412657 0.2725102
-0.041554134 -0.084412657 0.2725102
-0.041181453 -0.084412657 0.2725102
-0.040808767 -0.084412657 0.2725102
-0.040436085 -0.084412657 0.2725102
-0.040063404 -0.084412657 0.2725102
-0.039690718 -0.084412657 0.2725102
-0.039318036 -0.084412657 0.2725102
-0.038945355 -0.084412657 0.2725102
-0.038572673 -0.084412657 0.2725102
-0.038199987 -0.084412657 0.2725102
-0.037827305 -0.084412657 0.2725102
-0.037454624 -0.084412657 0.2725102
-0.037081938 -0.084412657 0.2725102
-0.036709256 -0.084412657 0.2725102
-0.036336575 -0.084412657 0.2725102
-0.035963893 -0.084412657 0.2725102
-0.035591207 -0.084412657 0.2725102
-0.035218526 -0.084412657 0.2725102
-0.034845844 -0.084412657 0.2725102
-0.034473158 -0.084412657 0.2725102
-0.034137677 -0.084504738 0.27280748
-0.034137752 -0.085438676 0.27582252
-0.034137826 -0.08639349 0.27890494
-0.034137897 -0.087369874 0.28205702
-0.049007785 -0.084039964 0.27251017
-0.048635103 -0.084039964 0.27251017
-0.048262417 -0.084039964 0.27251017
-0.047889736 -0.084039964 0.27251017
-0.047517054 -0.084039964 0.27251017
-0.047144372 -0.084039964 0.27251017
-0.046771687 -0.084039964 0.27251017
-0.046399005 -0.084039964 0.27251017
-0.046026323 -0.084039964 0.27251017
-0.045653641 -0.084039964 0.27251017
-0.045280956 -0.084039964 0.27251017
-0.044908274 -0.084039964 0.27251017
-0.044535592 -0.084039964 0.27251017
-0.044162907 -0.084039964 0.27251017
-0.043790225 -0.084039964 0.27251017
-0.043417543 -0.084039964 0.27251017
-0.043044861 -0.084039964 0.27251017
-0.042672176 -0.084039964 0.27251017
-0.042299494 -0.084039964 0.27251017
-0.041926812 -0.084039964 0.27251017
-0.041554131 -0.084039964 0.27251017
-0.041181445 -0.084039964 0.27251017
-0.040808763 -0.084039964 0.27251017
-0.040436082 -0.084039964 0.27251017
-0.0400634 -0.084039964 0.27251017
-0.039690714 -0.084039964 0.27251017
-0.039318033 -0.084039964 0.27251017
-0.038945351 -0.084039964 0.27251017
-0.038572665 -0.084039964 0.27251017
-0.038199984 -0.084039964 0.27251017
-0.037827302 -0.084039964 0.27251017
-0.03745462 -0.084039964 0.27251017
-0.037081935 -0.084039964 0.27251017
-0.036709253 -0.084039964 0.27251017
-0.036336571 -0.084039964 0.27251017
-0.035963889 -0.084039964 0.27251017
-0.035591204 -0.084039964 0.27251017
-0.035218522 -0.084039964 0.27251017
-0.03484584 -0.084039964 0.27251017
-0.034473155 -0.084039964 0.27251017
-0.034137685 -0.084131673 0.27280754
-0.034137759 -0.085061483 0.27582258
-0.03413783 -0.086012073 0.27890497
-0.034137905 -0.086984158 0.28205708
-0.049007781 -0.083667271 0.27251014
-0.048635095 -0.083667271 0.27251014
-0.048262414 -0.083667271 0.27251014
-0.047889732 -0.083667271 0.27251014
-0.04751705 -0.083667271 0.27251014
-0.047144365 -0.083667271 0.27251014
-0.046771683 -0.083667271 0.27251014
-0.046399001 -0.083667271 0.27251014
-0.046026316 -0.083667271 0.27251014
-0.045653634 -0.083667271 0.27251014
-0.045280952 -0.083667271 0.27251014
-0.04490827 -0.083667271 0.27251014
-0.044535585 -0.083667271 0.27251014
-0.044162903 -0.083667271 0.27251014
-0.043790221 -0.083667271 0.27251014
-0.043417539 -0.083667271 0.27251014
-0.043044854 -0.083667271 0.27251014
-0.042672172 -0.083667271 0.27251014
-0.04229949 -0.083667271 0.27251014
-0.041926809 -0.083667271 0.27251014
-0.041554123 -0.083667271 0.27251014
-0.041181441 -0.083667271 0.27251014
-0.04080876 -0.083667271 0.27251014
-0.040436078 -0.083667271 0.27251014
-0.040063392 -0.083667271 0.27251014
-0.039690711 -0.083667271 0.27251014
-0.039318029 -0.083667271 0.27251014
-0.038945347 -0.083667271 0.27251014
-0.038572662 -0.083667271 0.27251014
-0.03819998 -0.083667271 0.27251014
-0.037827298 -0.083667271 0.27251014
-0.037454616 -0.083667271 0.27251014
-0.037081931 -0.083667271 0.27251014
-0.036709249 -0.083667271 0.27251014
-0.036336567 -0.083667271 0.27251014
-0.035963882 -0.083667271 0.27251014
-0.0355912 -0.083667271 0.27251014
-0.035218518 -0.083667271 0.27251014
-0.034845836 -0.083667271 0.27251014
-0.034473151 -0.083667271 0.27251014
-0.034137692 -0.0837586 0.2728076
-0.034137763 -0.084684283 0.27582261
-0.034137838 -0.085630663 0.27890503
-0.034137912 -0.086598434 0.28205714
-0.049007773 -0.083294578 0.27251011
-0.048635092 -0.083294578 0.27251011
-0.04826241 -0.083294578 0.27251011
-0.047889724 -0.083294578 0.27251011
-0.047517043 -0.083294578 0.27251011
-0.047144361 -0.083294578 0.27251011
-0.046771679 -0.083294578 0.27251011
-0.046398994 -0.083294578 0.27251011
-0.046026312 -0.083294578 0.27251011
-0.04565363 -0.083294578 0.27251011
-0.045280948 -0.083294578 0.27251011
-0.044908263 -0.083294578 0.27251011
-0.044535581 -0.083294578 0.27251011
-0.044162899 -0.083294578 0.27251011
-0.043790217 -0.083294578 0.27251011
-0.043417532 -0.083294578 0.27251011
-0.04304485 -0.083294578 0.27251011
-0.042672168 -0.083294578 0.27251011
-0.042299487 -0.083294578 0.27251011
-0.041926801 -0.083294578 0.27251011
-0.041554119 -0.083294578 0.27251011
-0.041181438 -0.083294578 0.27251011
-0.040808756 -0.083294578 0.27251011
-0.04043607 -0.083294578 0.27251011
-0.040063389 -0.083294578 0.27251011
-0.039690707 -0.083294578 0.27251011
-0.039318025 -0.083294578 0.27251011
-0.03894534 -0.083294578 0.27251011
-0.038572658 -0.083294578 0.27251011
-0.038199976 -0.083294578 0.27251011
-0.037827294 -0.083294578 0.27251011
-0.037454609 -0.083294578 0.27251011
-0.037081927 -0.083294578 0.27251011
-0.036709245 -0.083294578 0.27251011
-0.036336564 -0.083294578 0.27251011
-0.035963878 -0.083294578 0.27251011
-0.035591196 -0.083294578 0.27251011
-0.035218515 -0.083294578 0.27251011
-0.034845833 -0.083294578 0.27251011
-0.034473147 -0.083294578 0.27251011
-0.034137696 -0.08338552 0.27280763
-0.034137771 -0.084307089 0.27582267
-0.034137845 -0.085249253 0.27890509
-0.03413792 -0.08621271 0.2820572
-0.049007762 -0.082921878 0.27251005
-0.04863508 -0.082921878 0.27251005
-0.048262399 -0.082921878 0.27251005
-0.047889717 -0.082921878 0.27251005
-0.047517031 -0.082921878 0.27251005
-0.04714435 -0.082921878 0.27251005
-0.046771668 -0.082921878 0.27251005
-0.046398986 -0.082921878 0.27251005
-0.046026301 -0.082921878 0.27251005
-0.045653619 -0.082921878 0.27251005
-0.045280937 -0.082921878 0.27251005
-0.044908255 -0.082921878 0.27251005
-0.044535574 -0.082921878 0.27251005
-0.044162888 -0.082921878 0.27251005
-0.043790206 -0.082921878 0.27251005
-0.043417525 -0.082921878 0.27251005
-0.043044843 -0.082921878 0.27251005
-0.042672157 -0.082921878 0.27251005
-0.042299476 -0.082921878 0.27251005
-0.041926794 -0.082921878 0.27251005
-0.041554112 -0.082921878 0.27251005
-0.041181426 -0.082921878 0.27251005
-0.040808745 -0.082921878 0.27251005
-0.040436063 -0.082921878 0.27251005
-0.040063381 -0.082921878 0.27251005
-0.039690699 -0.082921878 0.27251005
-0.039318014 -0.082921878 0.27251005
-0.038945332 -0.082921878 0.27251005
-0.03857265 -0.082921878 0.27251005
-0.038199969 -0.082921878 0.27251005
-0.037827283 -0.082921878 0.27251005
-0.037454601 -0.082921878 0.27251005
-0.03708192 -0.082921878 0.27251005
-0.036709238 -0.082921878 0.27251005
-0.036336556 -0.082921878 0.27251005
-0.035963871 -0.082921878 0.27251005
-0.035591189 -0.082921878 0.27251005
-0.035218507 -0.082921878 0.27251005
-0.034845825 -0.082921878 0.27251005
-0.03447314 -0.082921878 0.27251005
-0.034137703 -0.083012447 0.27280769
-0.034137778 -0.083929889 0.27582273
-0.034137852 -0.084867842 0.27890515
-0.034137923 -0.085826986 0.28205723
-0.049007758 -0.082549192 0.27251002
-0.048635077 -0.082549192 0.27251002
-0.048262391 -0.082549192 0.27251002
-0.047889709 -0.082549192 0.27251002
-0.047517028 -0.082549192 0.27251002
-0.047144346 -0.082549192 0.27251002
-0.04677166 -0.082549192 0.27251002
-0.046398979 -0.082549192 0.27251002
-0.046026297 -0.082549192 0.27251002
-0.045653615 -0.082549192 0.27251002
-0.045280933 -0.082549192 0.27251002
-0.044908248 -0.082549192 0.27251002
-0.044535566 -0.082549192 0.27251002
-0.044162884 -0.082549192 0.27251002
-0.043790203 -0.082549192 0.27251002
-0.043417521 -0.082549192 0.27251002
-0.043044835 -0.082549192 0.27251002
-0.042672154 -0.082549192 0.27251002
-0.042299472 -0.082549192 0.27251002
-0.04192679 -0.082549192 0.27251002
-0.041554105 -0.082549192 0.27251002
-0.041181423 -0.082549192 0.27251002
-0.040808741 -0.082549192 0.27251002
-0.040436059 -0.082549192 0.27251002
-0.040063377 -0.082549192 0.27251002
-0.039690692 -0.082549192 0.27251002
-0.03931801 -0.082549192 0.27251002
-0.038945328 -0.082549192 0.27251002
-0.038572647 -0.082549192 0.27251002
-0.038199965 -0.082549192 0.27251002
-0.037827279 -0.082549192 0.27251002
-0.037454598 -0.082549192 0.27251002
-0.037081916 -0.082549192 0.27251002
-0.036709234 -0.082549192 0.27251002
-0.036336549 -0.082549192 0.27251002
-0.035963867 -0.082549192 0.27251002
-0.035591185 -0.082549192 0.27251002
-0.035218503 -0.082549192 0.27251002
-0.034845822 -0.082549192 0.27251002
-0.034473136 -0.082549192 0.27251002
-0.034137711 -0.082639374 0.27280775
-0.034137785 -0.083552696 0.27582279
-0.034137856 -0.084486432 0.27890521
-0.034137931 -0.085441262 0.28205729
-0.049007751 -0.082176499 0.27250999
-0.048635069 -0.082176499 0.27250999
-0.048262388 -0.082176499 0.27250999
-0.047889706 -0.082176499 0.27250999
-0.047517024 -0.082176499 0.27250999
-0.047144338 -0.082176499 0.27250999
-0.046771657 -0.082176499 0.27250999
-0.046398975 -0.082176499 0.27250999
-0.046026293 -0.082176499 0.27250999
-0.045653611 -0.082176499 0.27250999
-0.045280926 -0.082176499 0.27250999
-0.044908244 -0.082176499 0.27250999
-0.044535562 -0.082176499 0.27250999
-0.044162881 -0.082176499 0.27250999
-0.043790195 -0.082176499 0.27250999
-0.043417513 -0.082176499 0.27250999
-0.043044832 -0.082176499 0.27250999
-0.04267215 -0.082176499 0.27250999
-0.042299468 -0.082176499 0.27250999
-0.041926783 -0.082176499 0.27250999
-0.041554101 -0.082176499 0.27250999
-0.041181419 -0.082176499 0.27250999
-0.040808737 -0.082176499 0.27250999
-0.040436056 -0.082176499 0.27250999
-0.04006337 -0.082176499 0.27250999
-0.039690688 -0.082176499 0.27250999
-0.039318006 -0.082176499 0.27250999
-0.038945325 -0.082176499 0.27250999
-0.038572643 -0.082176499 0.27250999
-0.038199957 -0.082176499 0.27250999
-0.037827276 -0.082176499 0.27250999
-0.037454594 -0.082176499 0.27250999
-0.037081912 -0.082176499 0.27250999
-0.03670923 -0.082176499 0.27250999
-0.036336545 -0.082176499 0.27250999
-0.035963863 -0.082176499 0.27250999
-0.035591181 -0.082176499 0.27250999
-0.0352185 -0.082176499 0.27250999
-0.034845818 -0.082176499 0.27250999
-0.034473132 -0.082176499 0.27250999
-0.034137715 -0.082266293 0.27280778
-0.034137789 -0.083175495 0.27582282
-0.03413786 -0.084105015 0.27890524
-0.034137938 -0.085055538 0.28205734
-0.049007747 -0.081803806 0.27250996
-0.048635066 -0.081803806 0.27250996
-0.048262384 -0.081803806 0.27250996
-0.047889698 -0.081803806 0.27250996
-0.047517017 -0.081803806 0.27250996
-0.047144335 -0.081803806 0.27250996
-0.046771653 -0.081803806 0.27250996
-0.046398971 -0.081803806 0.27250996
-0.046026286 -0.081803806 0.27250996
-0.045653604 -0.081803806 0.27250996
-0.045280922 -0.081803806 0.27250996
-0.04490824 -0.081803806 0.27250996
-0.044535559 -0.081803806 0.27250996
-0.044162873 -0.081803806 0.27250996
-0.043790191 -0.081803806 0.27250996
-0.04341751 -0.081803806 0.27250996
-0.043044828 -0.081803806 0.27250996
