# .PCD v0.7 - Point Cloud Data file format
VERSION 0.7
FIELDS x y z
SIZE 4 4 4
TYPE F F F
COUNT 1 1 1
WIDTH 1346
HEIGHT 1
VIEWPOINT 0 0 0 1 0 0 0
POINTS 1346
DATA ascii
0.10374232 0.010000359 0.017707318
0.10336654 0.010000363 0.017707318
0.10299075 0.010000365 0.017707318
0.10261498 0.010000369 0.017707318
0.10223921 0.010000376 0.017707348
0.10186344 0.010000378 0.017707318
0.10148766 0.010000382 0.017707318
0.10111188 0.010000385 0.017707318
0.10073611 0.010000391 0.017707348
0.10036033 0.010000395 0.017707318
0.1086274 0.010000305 0.017707288
0.10825162 0.010000307 0.017707288
0.10787585 0.010000315 0.017707318
0.10750007 0.010000318 0.017707318
0.10712429 0.01000032 0.017707288
0.10674851 0.010000324 0.017707288
0.10637274 0.010000331 0.017707318
0.10599697 0.010000337 0.017707348
0.1056212 0.010000341 0.017707348
0.10524542 0.010000343 0.017707318
0.11500053 0.013754764 0.016955107
0.11500053 0.013377921 0.016955107
0.11500053 0.013001078 0.016955107
0.11500053 0.012624235 0.016955107
0.11500053 0.012247392 0.016955107
0.11500053 0.011870549 0.016955107
0.11500053 0.011493707 0.016955107
0.11500053 0.011116864 0.016955107
0.11500053 0.010740021 0.016955107
0.11500053 0.010363178 0.016955107
0.088499844 0.02380657 0.0094365478
0.088499814 0.023419475 0.009436518
0.088499814 0.023032377 0.009436518
0.088499814 0.022645278 0.009436518
0.088499814 0.022258179 0.009436518
0.088499814 0.021871079 0.009436518
0.088499814 0.02148398 0.009436518
0.088499814 0.021096881 0.009436518
0.088499814 0.020709783 0.009436518
0.088499814 0.020322684 0.009436518
0.088499814 0.028838858 0.009436518
0.088499814 0.028451758 0.009436518
0.088499844 0.028064657 0.0094365478
0.088499844 0.027677558 0.0094365478
0.088499844 0.02729046 0.0094365478
0.088499844 0.026903361 0.0094365478
0.088499844 0.026516262 0.0094365478
0.088499844 0.026129164 0.0094365478
0.088499844 0.025742065 0.0094365478
0.088499844 0.025354967 0.0094365478
0.09000054 0.023570832 0.0098246932
0.090000525 0.02318426 0.0098246634
0.090000525 0.022797693 0.0098246634
0.090000525 0.022411123 0.0098246634
0.090000525 0.022024555 0.0098246634
0.090000525 0.021637985 0.0098246634
0.090000525 0.021251418 0.0098246634
0.090000525 0.020864848 0.0098246634
0.090000525 0.02047828 0.0098246634
0.090000525 0.020091711 0.0098246634
0.090000525 0.028596222 0.0098246634
0.090000525 0.028209653 0.0098246634
0.090000525 0.027823085 0.0098246634
0.090000525 0.027436517 0.0098246634
0.090000525 0.027049948 0.0098246634
0.090000525 0.026663378 0.0098246634
0.090000525 0.02627681 0.0098246634
0.090000525 0.025890242 0.0098246634
0.090000525 0.025503673 0.0098246634
0.09000054 0.025117107 0.0098246932
0.084999785 0.033856153 0.0095619559
0.084999785 0.033469226 0.0095619559
0.084999785 0.033082295 0.0095619559
0.084999785 0.032695368 0.0095619559
0.084999785 0.032308441 0.0095619559
0.084999785 0.031921513 0.0095619559
0.084999785 0.031534586 0.0095619559
0.084999785 0.031147659 0.0095619559
0.084999785 0.030760732 0.0095619559
0.084999785 0.030373804 0.0095619559
0.088499814 0.033484042 0.009436518
0.088499814 0.033096943 0.009436518
0.088499814 0.032709844 0.009436518
0.088499814 0.032322746 0.009436518
0.088499814 0.031935647 0.009436518
0.088499814 0.031548548 0.009436518
0.088499814 0.03116145 0.009436518
0.088499814 0.030774351 0.009436518
0.088499814 0.030387253 0.009436518
0.088499814 0.030000154 0.009436518
0.088499814 0.038516328 0.009436518
0.088499844 0.038129222 0.0094365478
0.088499844 0.037742123 0.0094365478
0.088499844 0.037355024 0.0094365478
0.088499844 0.036967926 0.0094365478
0.088499844 0.036580827 0.0094365478
0.088499844 0.036193728 0.0094365478
0.088499844 0.03580663 0.0094365478
0.088499844 0.035419531 0.0094365478
0.088499844 0.035032433 0.0094365478
0.09000054 0.033621617 0.0098246932
0.090000525 0.033235047 0.0098246634
0.090000525 0.032848477 0.0098246634
0.090000525 0.032461911 0.0098246634
0.090000525 0.032075342 0.0098246634
0.090000525 0.031688772 0.0098246634
0.090000525 0.031302202 0.0098246634
0.090000525 0.030915635 0.0098246634
0.090000525 0.030529067 0.0098246634
0.090000525 0.030142497 0.0098246634
0.090000525 0.038647007 0.0098246634
0.090000525 0.038260441 0.0098246634
0.090000525 0.037873872 0.0098246634
0.090000525 0.037487302 0.0098246634
0.090000525 0.037100732 0.0098246634
0.090000525 0.036714166 0.0098246634
0.090000525 0.036327597 0.0098246634
0.090000525 0.035941027 0.0098246634
0.090000525 0.035554457 0.0098246634
0.090000525 0.035167892 0.0098246634
0.088499919 0.02368238 0.010913134
0.088499904 0.023297302 0.010913104
0.088499904 0.022912223 0.010913104
0.088499904 0.022527143 0.010913104
0.088499904 0.022142064 0.010913104
0.088499904 0.021756986 0.010913104
0.088499904 0.021371907 0.010913104
0.088499904 0.020986827 0.010913104
0.088499904 0.020601748 0.010913104
0.088499904 0.020216668 0.010913104
0.088499904 0.028688414 0.010913104
0.088499904 0.028303334 0.010913104
0.088499904 0.027918255 0.010913104
0.088499904 0.027533175 0.010913104
0.088499904 0.027148096 0.010913104
0.088499904 0.026763018 0.010913104
0.088499904 0.026377939 0.010913104
0.088499904 0.025992859 0.010913104
0.088499919 0.025607776 0.010913134
0.088499919 0.025222696 0.010913134
0.085341826 0.023664851 0.019999951
0.085341826 0.023292176 0.019999951
0.085341826 0.022919502 0.019999951
0.085341826 0.022546826 0.019999951
0.085341826 0.022174152 0.019999951
0.085341826 0.021801477 0.019999951
0.085341826 0.021428803 0.019999951
0.085341826 0.021056127 0.019999951
0.085341826 0.020683452 0.019999951
0.085341826 0.020310778 0.019999951
0.085341826 0.028509624 0.019999951
0.085341826 0.02813695 0.019999951
0.085341826 0.027764274 0.019999951
0.085341826 0.027391599 0.019999951
0.085341826 0.027018925 0.019999951
0.085341826 0.026646249 0.019999951
0.085341826 0.026273575 0.019999951
0.085341826 0.0259009 0.019999951
0.085341826 0.025528226 0.019999951
0.085341826 0.02515555 0.019999951
0.084999979 0.033500131 0.012537122
0.084999979 0.033117272 0.012537122
0.084999979 0.032734413 0.012537122
0.084999979 0.032351553 0.012537122
0.084999979 0.031968698 0.012537122
0.084999979 0.031585839 0.012537122
0.084999979 0.031202979 0.012537122
0.084999979 0.03082012 0.012537122
0.084999979 0.030437261 0.012537122
0.084999979 0.030054403 0.012537122
0.088499919 0.033694442 0.010913134
0.088499904 0.033309367 0.010913104
0.088499904 0.032924287 0.010913104
0.088499904 0.032539207 0.010913104
0.088499904 0.032154128 0.010913104
0.088499904 0.031769048 0.010913104
0.088499904 0.031383969 0.010913104
0.088499904 0.030998891 0.010913104
0.088499904 0.030613812 0.010913104
0.088499904 0.030228732 0.010913104
0.088499904 0.03870048 0.010913104
0.088499904 0.0383154 0.010913104
0.088499904 0.037930321 0.010913104
0.088499904 0.037545241 0.010913104
0.088499904 0.037160162 0.010913104
0.088499904 0.036775082 0.010913104
0.088499904 0.036390003 0.010913104
0.088499904 0.036004923 0.010913104
0.088499919 0.03561984 0.010913134
0.088499919 0.03523476 0.010913134
0.085341826 0.033354398 0.019999951
0.085341826 0.032981724 0.019999951
0.085341826 0.032609046 0.019999951
0.085341826 0.032236371 0.019999951
0.085341826 0.031863697 0.019999951
0.085341826 0.031491023 0.019999951
0.085341826 0.031118348 0.019999951
0.085341826 0.030745672 0.019999951
0.085341826 0.030372998 0.019999951
0.085341826 0.030000323 0.019999951
0.081242368 0.038571786 0.019999981
0.081242368 0.038199112 0.019999981
0.081242368 0.037826438 0.019999981
0.081242368 0.037453763 0.019999981
0.081242368 0.037081089 0.019999981
0.081242368 0.036708415 0.019999981
0.081242368 0.03633574 0.019999981
0.081242368 0.035963066 0.019999981
0.081242368 0.035590392 0.019999981
0.081242368 0.035217717 0.019999981
0.085341826 0.038571846 0.019999951
0.085341826 0.038199168 0.019999951
0.085341826 0.037826493 0.019999951
0.085341826 0.037453819 0.019999951
0.085341826 0.037081145 0.019999951
0.085341826 0.03670847 0.019999951
0.085341826 0.036335796 0.019999951
0.085341826 0.035963122 0.019999951
0.085341826 0.035590447 0.019999951
0.085341826 0.035217769 0.019999951
0.11600003 0.036211677 0.009316504
0.11600003 0.035824388 0.009316504
0.11600003 0.035437096 0.009316504
0.11600003 0.035049807 0.009316504
0.11800002 0.036986262 0.009316504
0.11800002 0.036598969 0.009316504
0.11800002 0.036211677 0.009316504
0.11800002 0.035824388 0.009316504
0.11800002 0.035437096 0.009316504
0.11800002 0.035049807 0.009316504
0.11500053 0.023552677 0.016955107
0.11500053 0.023175836 0.016955107
0.11500053 0.022798993 0.016955107
0.11500053 0.02242215 0.016955107
0.11500053 0.022045307 0.016955107
0.11500053 0.021668464 0.016955107
0.11500053 0.021291621 0.016955107
0.11500053 0.020914778 0.016955107
0.11500053 0.020537935 0.016955107
0.11500053 0.020161092 0.016955107
0.080124341 0.0035404039 0.020000011
0.080124341 0.0031677298 0.020000011
0.080124341 0.0027950557 0.020000011
0.080124341 0.0024223817 0.020000011
0.080124341 0.0020497076 0.020000011
0.080124341 0.0016770334 0.020000011
0.080124341 0.0013043593 0.020000011
0.080124341 0.00093168521 0.020000011
0.080124341 0.00055901113 0.020000011
0.080124341 0.00018633704 0.020000011
0.085714504 0.0035404109 0.020000011
0.085714504 0.0031677361 0.020000011
0.085714504 0.0027950611 0.020000011
0.085714504 0.0024223863 0.020000011
0.085714504 0.0020497115 0.020000011
0.085714504 0.0016770368 0.020000011
0.085714504 0.0013043619 0.020000011
0.085714504 0.00093168707 0.020000011
0.085714504 0.00055901223 0.020000011
0.085714504 0.00018633741 0.020000011
0.080124341 0.0083851675 0.020000011
0.080124341 0.0080124931 0.020000011
0.080124341 0.0076398188 0.020000011
0.080124341 0.007267145 0.020000011
0.080124341 0.0068944707 0.020000011
0.080124341 0.0065217968 0.020000011
0.080124341 0.0061491225 0.020000011
0.080124341 0.0057764482 0.020000011
0.080124341 0.0054037743 0.020000011
0.080124341 0.0050311 0.020000011
0.090932004 0.0016770398 0.020000011
0.090932004 0.0013043643 0.020000011
0.090932004 0.00093168882 0.020000011
0.090932004 0.00055901328 0.020000011
0.090932004 0.00018633775 0.020000011
0.090186641 0.0016770393 0.020000011
0.090186641 0.0013043638 0.020000011
0.090186641 0.00093168847 0.020000011
0.090186641 0.0005590131 0.020000011
0.090186641 0.0001863377 0.020000011
0.095031478 0.0035404225 0.020000011
0.095031478 0.0031677464 0.020000011
0.095031478 0.0027950704 0.020000011
0.095031478 0.0024223942 0.020000011
0.095031478 0.0020497183 0.020000011
0.095031478 0.0016770422 0.020000011
0.095031478 0.0013043662 0.020000011
0.095031478 0.0009316901 0.020000011
0.095031478 0.00055901409 0.020000011
0.095031478 0.00018633802 0.020000011
0.080124341 0.013602604 0.020000011
0.080124341 0.01322993 0.020000011
0.080124341 0.012857256 0.020000011
0.080124341 0.012484582 0.020000011
0.080124341 0.012111908 0.020000011
0.080124341 0.011739234 0.020000011
0.080124341 0.01136656 0.020000011
0.080124341 0.010993886 0.020000011
0.080124341 0.010621211 0.020000011
0.080124341 0.010248537 0.020000011
0.080124341 0.018447367 0.020000011
0.080124341 0.018074693 0.020000011
0.080124341 0.017702019 0.020000011
0.080124341 0.017329345 0.020000011
0.080124341 0.01695667 0.020000011
0.080124341 0.016583998 0.020000011
0.080124341 0.016211323 0.020000011
0.080124341 0.015838649 0.020000011
0.080124341 0.015465975 0.020000011
0.080124341 0.0150933 0.020000011
0.10024901 0.0035404291 0.020000011
0.10024901 0.0031677522 0.020000011
0.10024901 0.0027950755 0.020000011
0.10024901 0.0024223989 0.020000011
0.10024901 0.002049722 0.020000011
0.10024901 0.0016770454 0.020000011
0.10024901 0.0013043686 0.020000011
0.10024901 0.00093169184 0.020000011
0.10024901 0.00055901508 0.020000011
0.10024901 0.00018633837 0.020000011
0.10509388 0.0035404349 0.020000011
0.10509388 0.0031677575 0.020000011
0.10509388 0.0027950802 0.020000011
0.10509388 0.0024224028 0.020000011
0.10509388 0.0020497255 0.020000011
0.10509388 0.001677048 0.020000011
0.10509388 0.0013043707 0.020000011
0.10509388 0.00093169336 0.020000011
0.10509388 0.00055901601 0.020000011
0.10509388 0.00018633867 0.020000011
0.11105683 0.0035404426 0.020000011
0.11105683 0.0031677645 0.020000011
0.11105683 0.0027950862 0.020000011
0.11105683 0.002422408 0.020000011
0.11105683 0.0020497299 0.020000011
0.11105683 0.0016770518 0.020000011
0.11105683 0.0013043736 0.020000011
0.11105683 0.00093169539 0.020000011
0.11105683 0.00055901724 0.020000011
0.11105683 0.00018633908 0.020000011
0.11515637 0.0035404477 0.020000011
0.11515637 0.0031677689 0.020000011
0.11515637 0.0027950902 0.020000011
0.11515637 0.0024224115 0.020000011
0.11515637 0.0020497327 0.020000011
0.11515637 0.0016770541 0.020000011
0.11515637 0.0013043755 0.020000011
0.11515637 0.00093169673 0.020000011
0.11515637 0.00055901805 0.020000011
0.11515637 0.00018633934 0.020000011
0.11515637 0.0083852708 0.020000011
0.11515637 0.0080125919 0.020000011
0.11515637 0.0076399134 0.020000011
0.11515637 0.0072672344 0.020000011
0.11515637 0.0068945559 0.020000011
0.11515637 0.0065218774 0.020000011
0.11515637 0.0061491984 0.020000011
0.11515637 0.0057765199 0.020000011
0.11515637 0.0054038409 0.020000011
0.11515637 0.0050311624 0.020000011
0.11515637 0.013602773 0.020000011
0.11515637 0.013230094 0.020000011
0.11515637 0.012857415 0.020000011
0.11515637 0.012484737 0.020000011
0.11515637 0.012112058 0.020000011
0.11515637 0.011739379 0.020000011
0.11515637 0.0113667 0.020000011
0.11515637 0.010994022 0.020000011
0.11515637 0.010621343 0.020000011
0.11515637 0.010248664 0.020000011
0.11515637 0.018447595 0.020000011
0.11515637 0.018074917 0.020000011
0.11515637 0.017702239 0.020000011
0.11515637 0.017329559 0.020000011
0.11515637 0.016956881 0.020000011
0.11515637 0.016584203 0.020000011
0.11515637 0.016211523 0.020000011
0.11515637 0.015838845 0.020000011
0.11515637 0.015466166 0.020000011
0.11515637 0.015093487 0.020000011
0.080124341 0.023664804 0.020000011
0.080124341 0.02329213 0.020000011
0.080124341 0.022919457 0.020000011
0.080124341 0.022546783 0.020000011
0.080124341 0.022174109 0.020000011
0.080124341 0.021801434 0.020000011
0.080124341 0.02142876 0.020000011
0.080124341 0.021056086 0.020000011
0.080124341 0.020683412 0.020000011
0.080124341 0.020310737 0.020000011
0.080124341 0.028509568 0.020000011
0.080124341 0.028136894 0.020000011
0.080124341 0.02776422 0.020000011
0.080124341 0.027391545 0.020000011
0.080124341 0.027018871 0.020000011
0.080124341 0.026646197 0.020000011
0.080124341 0.026273523 0.020000011
0.080124341 0.02590085 0.020000011
0.080124341 0.025528176 0.020000011
0.080124341 0.025155501 0.020000011
0.080124341 0.033354331 0.020000011
0.080124341 0.032981656 0.020000011
0.080124341 0.032608982 0.020000011
0.080124341 0.032236308 0.020000011
0.080124341 0.031863634 0.020000011
0.080124341 0.031490959 0.020000011
0.080124341 0.031118287 0.020000011
0.080124341 0.030745612 0.020000011
0.080124341 0.030372938 0.020000011
0.080124341 0.030000264 0.020000011
0.080124341 0.038571768 0.020000011
0.080124341 0.038199093 0.020000011
0.080124341 0.037826419 0.020000011
0.080124341 0.037453745 0.020000011
0.080124341 0.03708107 0.020000011
0.080124341 0.0367084 0.020000011
0.080124341 0.036335725 0.020000011
0.080124341 0.035963051 0.020000011
0.080124341 0.035590377 0.020000011
0.080124341 0.035217702 0.020000011
0.11515637 0.023665097 0.020000011
0.11515637 0.023292419 0.020000011
0.11515637 0.022919741 0.020000011
0.11515637 0.022547061 0.020000011
0.11515637 0.022174383 0.020000011
0.11515637 0.021801705 0.020000011
0.11515637 0.021429025 0.020000011
0.11515637 0.021056347 0.020000011
0.11515637 0.020683669 0.020000011
0.11515637 0.020310989 0.020000011
0.11515637 0.02850992 0.020000011
0.11515637 0.028137242 0.020000011
0.11515637 0.027764563 0.020000011
0.11515637 0.027391884 0.020000011
0.11515637 0.027019205 0.020000011
0.11515637 0.026646527 0.020000011
0.11515637 0.026273848 0.020000011
0.11515637 0.025901169 0.020000011
0.11515637 0.025528491 0.020000011
0.11515637 0.025155813 0.020000011
0.11515637 0.033354744 0.020000011
0.11515637 0.032982066 0.020000011
0.11515637 0.032609385 0.020000011
0.11515637 0.032236706 0.020000011
0.11515637 0.031864028 0.020000011
0.11515637 0.03149135 0.020000011
0.11515637 0.03111867 0.020000011
0.11515637 0.030745992 0.020000011
0.11515637 0.030373314 0.020000011
0.11515637 0.030000634 0.020000011
0.11664711 0.036708873 0.020000011
0.11664711 0.036336191 0.020000011
0.11664711 0.035963513 0.020000011
0.11664711 0.035590835 0.020000011
0.11664711 0.035218157 0.020000011
0.11515637 0.03670885 0.020000011
0.11515637 0.036336172 0.020000011
0.11515637 0.035963494 0.020000011
0.11515637 0.035590816 0.020000011
0.11515637 0.035218138 0.020000011
0.12899949 0.003674627 0.0096529126
0.12899949 0.0032878243 0.0096529126
0.12899949 0.0029010214 0.0096529126
0.12899949 0.0025142184 0.0096529126
0.12899949 0.0021274157 0.0096529126
0.12899949 0.0017406129 0.0096529126
0.12899949 0.00135381 0.0096529126
0.12899949 0.00096700713 0.0096529126
0.12899949 0.0005802043 0.0096529126
0.12899949 0.00019340143 0.0096529126
0.12499978 0.0087058675 0.0095619559
0.12499978 0.0083189402 0.0095619559
0.12499978 0.0079320129 0.0095619559
0.12499978 0.0075450852 0.0095619559
0.12499981 0.007158157 0.0095619857
0.12499978 0.0067712306 0.0095619559
0.12499978 0.0063843029 0.0095619559
0.12499978 0.0059973756 0.0095619559
0.12499978 0.0056104478 0.0095619559
0.12499978 0.0052235206 0.0095619559
0.12899949 0.0087030642 0.0096529126
0.12899949 0.0083162617 0.0096529126
0.12899949 0.0079294583 0.0096529126
0.12899949 0.0075426558 0.0096529126
0.12899949 0.0071558529 0.0096529126
0.12899949 0.0067690499 0.0096529126
0.12899949 0.006382247 0.0096529126
0.12899949 0.005995444 0.0096529126
0.12899949 0.0056086415 0.0096529126
0.12899949 0.0052218386 0.0096529126
0.13000055 0.0036782518 0.0093743801
0.13000055 0.0032910672 0.0093743801
0.13000055 0.0029038829 0.0093743801
0.13000055 0.0025166986 0.0093743801
0.13000055 0.002129514 0.0093743801
0.13000055 0.0017423297 0.0093743801
0.13000055 0.0013551454 0.0093743801
0.13000055 0.00096796098 0.0093743801
0.13000055 0.0005807766 0.0093743801
0.13000055 0.00019359219 0.0093743801
0.13000055 0.0087116491 0.0093743801
0.13000055 0.0083244639 0.0093743801
0.13000055 0.0079372795 0.0093743801
0.13000055 0.0075500957 0.0093743801
0.13000055 0.0071629114 0.0093743801
0.13000055 0.0067757266 0.0093743801
0.13000055 0.0063885422 0.0093743801
0.13000055 0.0060013579 0.0093743801
0.13000055 0.0056141736 0.0093743801
0.13000055 0.0052269893 0.0093743801
0.12899949 0.013731501 0.0096529126
0.12899949 0.013344699 0.0096529126
0.12899949 0.012957895 0.0096529126
0.12899949 0.012571093 0.0096529126
0.12899949 0.01218429 0.0096529126
0.12899949 0.011797487 0.0096529126
0.12899949 0.011410684 0.0096529126
0.12899949 0.011023881 0.0096529126
0.12899949 0.010637078 0.0096529126
0.12899949 0.010250276 0.0096529126
0.12899949 0.018759938 0.0096529126
0.12899949 0.018373135 0.0096529126
0.12899949 0.017986333 0.0096529126
0.12899949 0.017599531 0.0096529126
0.12899949 0.017212726 0.0096529126
0.12899949 0.016825924 0.0096529126
0.12899949 0.016439121 0.0096529126
0.12899949 0.016052319 0.0096529126
0.12899949 0.015665516 0.0096529126
0.12899949 0.015278713 0.0096529126
0.13000055 0.013745045 0.0093743801
0.13000055 0.013357861 0.0093743801
0.13000055 0.012970677 0.0093743801
0.13000055 0.012583492 0.0093743801
0.13000055 0.012196308 0.0093743801
0.13000055 0.011809124 0.0093743801
0.13000055 0.011421939 0.0093743801
0.13000055 0.011034755 0.0093743801
0.13000055 0.010647571 0.0093743801
0.13000055 0.010260386 0.0093743801
0.13000055 0.018778443 0.0093743801
0.13000055 0.018391259 0.0093743801
0.13000055 0.018004075 0.0093743801
0.13000055 0.01761689 0.0093743801
0.13000055 0.017229706 0.0093743801
0.13000055 0.01684252 0.0093743801
0.13000055 0.016455336 0.0093743801
0.13000055 0.016068151 0.0093743801
0.13000055 0.015680967 0.0093743801
0.13000055 0.015293784 0.0093743801
0.12899955 0.0036458753 0.011865944
0.12899955 0.0032620989 0.011865944
0.12899955 0.0028783225 0.011865944
0.12899955 0.0024945461 0.011865944
0.12899955 0.0021107697 0.011865944
0.12899955 0.0017269935 0.011865944
0.12899955 0.0013432172 0.011865944
0.12899955 0.00095944083 0.011865944
0.12899955 0.00057566451 0.011865944
0.12899955 0.00019188816 0.011865944
0.12499997 0.0086143194 0.012537122
0.12499997 0.008231461 0.012537122
0.12499997 0.0078486018 0.012537122
0.12499997 0.0074657435 0.012537122
0.12499997 0.0070828847 0.012537122
0.12499997 0.0067000263 0.012537122
0.12499997 0.0063171675 0.012537122
0.12499997 0.0059343087 0.012537122
0.12499997 0.0055514504 0.012537122
0.12499997 0.0051685916 0.012537122
0.12899955 0.0086349677 0.011865944
0.12899955 0.0082511911 0.011865944
0.12899955 0.0078674145 0.011865944
0.12899955 0.0074836384 0.011865944
0.12899955 0.0070998622 0.011865944
0.12899955 0.0067160856 0.011865944
0.12899955 0.0063323095 0.011865944
0.12899955 0.0059485333 0.011865944
0.12899955 0.0055647567 0.011865944
0.12899955 0.0051809805 0.011865944
0.12335548 0.0027950986 0.019999981
0.12335548 0.0024224187 0.019999981
0.12335548 0.0020497388 0.019999981
0.12335548 0.0016770591 0.019999981
0.12335548 0.0013043793 0.019999981
0.12335548 0.00093169947 0.019999981
0.12335548 0.00055901968 0.019999981
0.12335548 0.00018633989 0.019999981
0.12149204 0.0046584946 0.019999981
0.12149204 0.0042858147 0.019999981
0.12521893 0.0035404605 0.019999981
0.12521893 0.0031677803 0.019999981
0.12521893 0.0027951002 0.019999981
0.12521893 0.0024224203 0.019999981
0.12521893 0.0020497402 0.019999981
0.12521893 0.0016770602 0.019999981
0.12521893 0.0013043801 0.019999981
0.12521893 0.00093170011 0.019999981
0.12521893 0.00055902009 0.019999981
0.12521893 0.00018634002 0.019999981
0.12335548 0.0050311773 0.019999981
0.12298279 0.0068945754 0.019999981
0.12149204 0.0068945717 0.019999981
0.12149204 0.0065218923 0.019999981
0.12149204 0.0061492128 0.019999981
0.12149204 0.0057765329 0.019999981
0.12149204 0.0054038535 0.019999981
0.12149204 0.005031174 0.019999981
0.12111935 0.0068945708 0.019999981
0.12111935 0.0065218913 0.019999981
0.12521893 0.0083853006 0.019999981
0.12521893 0.0080126207 0.019999981
0.12521893 0.0076399408 0.019999981
0.12521893 0.0072672609 0.019999981
0.12521893 0.0068945806 0.019999981
0.12521893 0.0065219007 0.019999981
0.12521893 0.0061492207 0.019999981
0.12521893 0.0057765408 0.019999981
0.12521893 0.0054038605 0.019999981
0.12521893 0.0050311806 0.019999981
0.12899955 0.01362406 0.011865944
0.12899955 0.013240283 0.011865944
0.12899955 0.012856507 0.011865944
0.12899955 0.012472731 0.011865944
0.12899955 0.012088954 0.011865944
0.12899955 0.011705178 0.011865944
0.12899955 0.011321402 0.011865944
0.12899955 0.010937626 0.011865944
0.12899955 0.010553849 0.011865944
0.12899955 0.010170072 0.011865944
0.12899955 0.018613152 0.011865944
0.12899955 0.018229377 0.011865944
0.12899955 0.017845599 0.011865944
0.12899955 0.017461823 0.011865944
0.12899955 0.017078048 0.011865944
0.12899955 0.01669427 0.011865944
0.12899955 0.016310494 0.011865944
0.12899955 0.015926717 0.011865944
0.12899955 0.015542941 0.011865944
0.12899955 0.015159165 0.011865944
0.12521893 0.013602821 0.019999981
0.12521893 0.013230141 0.019999981
0.12521893 0.012857461 0.019999981
0.12521893 0.012484781 0.019999981
0.12521893 0.012112102 0.019999981
0.12521893 0.011739422 0.019999981
0.12521893 0.011366741 0.019999981
0.12521893 0.010994061 0.019999981
0.12521893 0.010621381 0.019999981
0.12521893 0.010248701 0.019999981
0.12521893 0.018447662 0.019999981
0.12521893 0.018074982 0.019999981
0.12521893 0.017702302 0.019999981
0.12521893 0.017329622 0.019999981
0.12521893 0.016956942 0.019999981
0.12521893 0.016584262 0.019999981
0.12521893 0.016211582 0.019999981
0.12521893 0.015838902 0.019999981
0.12521893 0.015466222 0.019999981
0.12521893 0.015093542 0.019999981
0.15499955 0.0032846117 0.0099524558
0.15499955 0.0028981869 0.0099524558
0.15499955 0.0025117618 0.0099524558
0.15499957 0.004830312 0.009952426
0.15499957 0.0044438872 0.009952426
0.15499955 0.0040574614 0.0099524558
0.15499955 0.0036710366 0.0099524558
0.15499955 0.0032846117 0.0099524558
0.15499955 0.0028981869 0.0099524558
0.15499955 0.0025117618 0.0099524558
0.15750027 0.0013550626 0.009414643
0.15750027 0.00096790184 0.009414643
0.15750027 0.00058074109 0.009414643
0.15750027 0.00019358037 0.009414643
0.15750027 0.0021293841 0.009414643
0.15750027 0.0017422234 0.009414643
0.15750027 0.0013550626 0.009414643
0.15750027 0.00096790184 0.009414643
0.15750027 0.00058074109 0.009414643
0.15750027 0.00019358037 0.009414643
0.15499957 0.0086945612 0.009952426
0.15499957 0.0083081368 0.009952426
0.15499957 0.0079217115 0.009952426
0.15499957 0.0075352867 0.009952426
0.15499957 0.0071488614 0.009952426
0.15499957 0.0067624366 0.009952426
0.15499957 0.0063760118 0.009952426
0.15499957 0.0059895869 0.009952426
0.15499957 0.0056031616 0.009952426
0.15499957 0.0052167368 0.009952426
0.15699986 0.0087007815 0.0097504556
0.15699986 0.0083140805 0.0097504556
0.15699986 0.0079273786 0.0097504556
0.15699986 0.0075406777 0.0097504556
0.15699986 0.0071539762 0.0097504556
0.15699986 0.0067672748 0.0097504556
0.15699986 0.0063805734 0.0097504556
0.15699986 0.0059938719 0.0097504556
0.15699986 0.0056071705 0.0097504556
0.15699986 0.0052204691 0.0097504556
0.15499955 0.013718084 0.0099524558
0.15499955 0.013331659 0.0099524558
0.15499955 0.012945235 0.0099524558
0.15499955 0.012558809 0.0099524558
0.15499957 0.012172386 0.009952426
0.15499957 0.011785961 0.009952426
0.15499957 0.011399536 0.009952426
0.15499957 0.011013111 0.009952426
0.15499957 0.010626686 0.009952426
0.15499957 0.010240261 0.009952426
0.15699986 0.0137279 0.0097504556
0.15699986 0.013341199 0.0097504556
0.15699986 0.012954497 0.0097504556
0.15699986 0.012567796 0.0097504556
0.15699986 0.012181095 0.0097504556
0.15699986 0.011794393 0.0097504556
0.15699986 0.011407692 0.0097504556
0.15699986 0.01102099 0.0097504556
0.15699986 0.010634289 0.0097504556
0.15699986 0.010247587 0.0097504556
0.15499957 0.01874161 0.009952426
0.15499957 0.018355185 0.009952426
0.15499957 0.017968761 0.009952426
0.15499957 0.017582335 0.009952426
0.15499957 0.01719591 0.009952426
0.15499957 0.016809486 0.009952426
0.15499957 0.01642306 0.009952426
0.15499957 0.016036635 0.009952426
0.15499957 0.015650211 0.009952426
0.15499957 0.015263786 0.009952426
0.15699986 0.018755019 0.0097504556
0.15699986 0.018368317 0.0097504556
0.15699986 0.017981615 0.0097504556
0.15699986 0.017594915 0.0097504556
0.15699986 0.017208213 0.0097504556
0.15699986 0.016821511 0.0097504556
0.15699986 0.016434809 0.0097504556
0.15699986 0.016048109 0.0097504556
0.15699986 0.015661407 0.0097504556
0.15699986 0.015274705 0.0097504556
0.15499952 0.0036408915 0.012272716
0.15499952 0.0032576397 0.012272716
0.15499952 0.0028743881 0.012272716
0.15499954 0.0048103975 0.011117369
0.15499954 0.0044255657 0.011117369
0.15499954 0.0040407339 0.011117369
0.15499954 0.0036559019 0.011117369
0.15499954 0.0032710701 0.011117369
0.15499954 0.0028862383 0.011117369
0.15499954 0.0025014067 0.011117369
0.1575003 0.0017352147 0.010553479
0.1575003 0.0013496114 0.010553479
0.1575003 0.00096400821 0.010553479
0.1575003 0.00057840493 0.010553479
0.1575003 0.00019280164 0.010553479
0.15686536 0.0024998751 0.011289835
0.15648076 0.0024998744 0.011289835
0.15609615 0.0024998742 0.011289835
0.15571153 0.002499874 0.011289835
0.15532692 0.0024998735 0.011289865
0.15499955 0.0086587165 0.011117339
0.15499955 0.0082738847 0.011117339
0.15499955 0.0078890529 0.011117339
0.15499955 0.0075042206 0.011117339
0.15499955 0.0071193888 0.011117339
0.15499955 0.006734557 0.011117339
0.15499954 0.0063497243 0.011117369
0.15499954 0.0059648925 0.011117369
0.15499954 0.0055800611 0.011117369
0.15499954 0.0051952293 0.011117369
0.15699986 0.0086656362 0.01089263
0.15699986 0.008280497 0.01089263
0.15699986 0.007895357 0.01089263
0.15699986 0.0075102178 0.01089263
0.15699986 0.0071250787 0.01089263
0.15699986 0.0067399391 0.01089263
0.15699986 0.0063548 0.01089263
0.15699983 0.0059696599 0.010892659
0.15699983 0.0055845203 0.010892659
0.15699983 0.0051993812 0.010892659
0.15499943 0.0039591212 0.016800791
0.15499943 0.0035820622 0.016800791
0.15499943 0.003205003 0.016800791
0.15499943 0.0028279438 0.016800791
0.15499945 0.0047323559 0.015682548
0.15499945 0.0043537677 0.015682548
0.15499945 0.003975179 0.015682548
0.15499945 0.0035965906 0.015682548
0.15499945 0.0032180022 0.015682548
0.15499945 0.0028394137 0.015682548
0.1557797 0.0031678146 0.019999981
0.1557797 0.0027951305 0.019999981
0.15750042 0.0024667294 0.015018582
0.15750042 0.0020872327 0.015018582
0.15750042 0.0017077358 0.015018582
0.15750042 0.001328239 0.015018582
0.15750042 0.00094874209 0.015018582
0.15750042 0.00056924525 0.015018582
0.1575004 0.0001897484 0.015018612
0.15540701 0.0046585505 0.019999981
0.15499945 0.0085182404 0.015682548
0.15499945 0.0081396522 0.015682548
0.15499945 0.007761064 0.015682548
0.15499945 0.0073824753 0.015682548
0.15499945 0.0070038871 0.015682548
0.15499945 0.0066252984 0.015682548
0.15499945 0.0062467097 0.015682548
0.15499945 0.0058681215 0.015682548
0.15499945 0.0054895328 0.015682548
0.15499945 0.0051109446 0.015682548
0.1550343 0.0098761255 0.019999981
0.1550343 0.0095034419 0.019999981
0.1550343 0.0091307582 0.019999981
0.1550343 0.0087580737 0.019999981
0.1550343 0.00838539 0.019999981
0.1550343 0.0080127055 0.019999981
0.1550343 0.0076400219 0.019999981
0.1550343 0.0072673378 0.019999981
0.1550343 0.0068946541 0.019999981
0.1550343 0.00652197 0.019999981
0.15499954 0.013661528 0.011117369
0.15499954 0.013276696 0.011117369
0.15499954 0.012891864 0.011117369
0.15499954 0.012507033 0.011117369
0.15499955 0.012122203 0.011117339
0.15499955 0.011737371 0.011117339
0.15499955 0.011352539 0.011117339
0.15499955 0.010967707 0.011117339
0.15499955 0.010582875 0.011117339
0.15499955 0.010198044 0.011117339
0.15699983 0.013672447 0.010892659
0.15699983 0.013287308 0.010892659
0.15699983 0.012902168 0.010892659
0.15699983 0.012517028 0.010892659
0.15699986 0.01213189 0.01089263
0.15699986 0.011746751 0.01089263
0.15699986 0.011361612 0.01089263
0.15699986 0.010976472 0.01089263
0.15699986 0.010591333 0.01089263
0.15699986 0.010206194 0.01089263
0.15499955 0.018664343 0.011117339
0.15499955 0.018279511 0.011117339
0.15499955 0.01789468 0.011117339
0.15499955 0.017509848 0.011117339
0.15499955 0.017125016 0.011117339
0.15499955 0.016740184 0.011117339
0.15499954 0.016355351 0.011117369
0.15499954 0.015970519 0.011117369
0.15499954 0.015585687 0.011117369
0.15499954 0.015200855 0.011117369
0.15699986 0.018679259 0.01089263
0.15699986 0.01829412 0.01089263
0.15699986 0.017908981 0.01089263
0.15699986 0.017523842 0.01089263
0.15699986 0.017138703 0.01089263
0.15699986 0.016753564 0.01089263
0.15699986 0.016368425 0.01089263
0.15699983 0.015983284 0.010892659
0.15699983 0.015598143 0.010892659
0.15699983 0.015213004 0.010892659
0.15499945 0.013439891 0.015682548
0.15499945 0.013061303 0.015682548
0.15499945 0.012682714 0.015682548
0.15499946 0.012304127 0.015682518
0.15499946 0.011925538 0.015682518
0.15499946 0.01154695 0.015682518
0.15499946 0.011168362 0.015682518
0.15499946 0.010789772 0.015682518
0.15499946 0.010411184 0.015682518
0.15499946 0.010032596 0.015682518
0.15540701 0.010994179 0.019999981
0.15540701 0.010621495 0.019999981
0.15540701 0.010248811 0.019999981
0.1550343 0.012484914 0.019999981
0.1550343 0.01211223 0.019999981
0.1550343 0.011739546 0.019999981
0.1550343 0.011366862 0.019999981
0.1550343 0.010994178 0.019999981
0.1550343 0.010621494 0.019999981
0.1550343 0.01024881 0.019999981
0.15499946 0.018740132 0.015682518
0.15499945 0.018361541 0.015682548
0.15499945 0.017982952 0.015682548
0.15499945 0.017604364 0.015682548
0.15499945 0.017225776 0.015682548
0.15499945 0.016847188 0.015682548
0.15499945 0.016468599 0.015682548
0.15499945 0.016090011 0.015682548
0.15499945 0.015711421 0.015682548
0.15499945 0.015332834 0.015682548
0.1550343 0.019938594 0.019999981
0.1550343 0.01956591 0.019999981
0.1550343 0.019193226 0.019999981
0.1550343 0.018820541 0.019999981
0.1550343 0.018447857 0.019999981
0.1550343 0.018075174 0.019999981
0.1550343 0.01770249 0.019999981
0.1550343 0.017329806 0.019999981
0.1550343 0.016957121 0.019999981
0.1550343 0.016584437 0.019999981
0.12899949 0.023788376 0.0096529126
0.12899949 0.023401573 0.0096529126
0.12899949 0.023014769 0.0096529126
0.12899949 0.022627966 0.0096529126
0.12899949 0.022241164 0.0096529126
0.12899949 0.021854362 0.0096529126
0.12899949 0.021467559 0.0096529126
0.12899949 0.021080755 0.0096529126
0.12899949 0.020693952 0.0096529126
0.12899949 0.02030715 0.0096529126
0.12899949 0.028816814 0.0096529126
0.12899949 0.028430009 0.0096529126
0.12899949 0.028043207 0.0096529126
0.12899949 0.027656404 0.0096529126
0.12899949 0.027269602 0.0096529126
0.12899949 0.026882797 0.0096529126
0.12899949 0.026495995 0.0096529126
0.12899949 0.026109193 0.0096529126
0.12899949 0.02572239 0.0096529126
0.12899949 0.025335588 0.0096529126
0.13000055 0.02381184 0.0093743801
0.13000055 0.023424655 0.0093743801
0.13000055 0.023037471 0.0093743801
0.13000055 0.022650287 0.0093743801
0.13000055 0.022263102 0.0093743801
0.13000055 0.021875918 0.0093743801
0.13000055 0.021488734 0.0093743801
0.13000055 0.021101549 0.0093743801
0.13000055 0.020714365 0.0093743801
0.13000055 0.020327181 0.0093743801
0.13000055 0.028845238 0.0093743801
0.13000055 0.028458051 0.0093743801
0.13000055 0.028070867 0.0093743801
0.13000055 0.027683683 0.0093743801
0.13000055 0.027296498 0.0093743801
0.13000055 0.026909314 0.0093743801
0.13000055 0.02652213 0.0093743801
0.13000055 0.026134945 0.0093743801
0.13000055 0.025747761 0.0093743801
0.13000055 0.025360577 0.0093743801
0.12839031 0.034999814 0.0097207427
0.12800357 0.03499981 0.0097207427
0.12761682 0.034999806 0.0097207427
0.12993731 0.034999833 0.0097207427
0.12955056 0.034999829 0.0097207129
0.1291638 0.034999821 0.0097207427
0.12877706 0.034999818 0.0097207427
0.12839031 0.034999814 0.0097207427
0.12800357 0.03499981 0.0097207427
0.12761682 0.034999806 0.0097207427
0.13380478 0.034999877 0.0097207427
0.13341804 0.034999873 0.0097207427
0.13303129 0.03499987 0.0097207427
0.13264453 0.034999866 0.0097207129
0.13225779 0.034999862 0.0097207129
0.13187104 0.034999855 0.0097207427
0.1314843 0.034999851 0.0097207427
0.13109756 0.034999847 0.0097207129
0.13071081 0.034999844 0.0097207129
0.13032405 0.034999836 0.0097207427
0.13883254 0.034999941 0.0097207129
0.13844578 0.034999937 0.0097207129
0.13805902 0.034999929 0.0097207427
0.13767228 0.034999926 0.0097207427
0.13728553 0.034999922 0.0097207129
0.13689879 0.034999914 0.0097207427
0.13651203 0.034999911 0.0097207427
0.13612528 0.034999907 0.0097207427
0.13573852 0.0349999 0.0097207427
0.13535178 0.034999896 0.0097207427
0.12899955 0.023602244 0.011865944
0.12899955 0.023218468 0.011865944
0.12899955 0.022834692 0.011865944
0.12899955 0.022450915 0.011865944
0.12899955 0.022067139 0.011865944
0.12899955 0.021683363 0.011865944
0.12899955 0.021299586 0.011865944
0.12899955 0.02091581 0.011865944
0.12899955 0.020532034 0.011865944
0.12899955 0.020148257 0.011865944
0.12899955 0.028591337 0.011865944
0.12899955 0.028207561 0.011865944
0.12899955 0.027823783 0.011865944
0.12899955 0.027440008 0.011865944
0.12899955 0.027056232 0.011865944
0.12899955 0.026672455 0.011865944
0.12899955 0.026288679 0.011865944
0.12899955 0.025904903 0.011865944
0.12899955 0.025521126 0.011865944
0.12899955 0.02513735 0.011865944
0.12521893 0.023665182 0.019999981
0.12521893 0.023292502 0.019999981
0.12521893 0.022919822 0.019999981
0.12521893 0.022547143 0.019999981
0.12521893 0.022174463 0.019999981
0.12521893 0.021801783 0.019999981
0.12521893 0.021429103 0.019999981
0.12521893 0.021056423 0.019999981
0.12521893 0.020683743 0.019999981
0.12521893 0.020311063 0.019999981
0.12521893 0.028510023 0.019999981
0.12521893 0.028137343 0.019999981
0.12521893 0.027764663 0.019999981
0.12521893 0.027391983 0.019999981
0.12521893 0.027019303 0.019999981
0.12521893 0.026646623 0.019999981
0.12521893 0.026273943 0.019999981
0.12521893 0.025901264 0.019999981
0.12521893 0.025528584 0.019999981
0.12521893 0.025155902 0.019999981
0.13854197 0.029999912 0.01182425
0.13815814 0.029999908 0.01182425
0.13777432 0.029999906 0.01182425
0.13739049 0.029999904 0.01182425
0.13700667 0.029999902 0.01182425
0.13662288 0.029999899 0.01182425
0.13623905 0.029999897 0.01182425
0.13585521 0.029999893 0.01182425
0.1354714 0.029999889 0.01182428
0.13508758 0.029999888 0.01182425
0.12689593 0.034999833 0.012811035
0.1299561 0.03499987 0.012811035
0.12957358 0.034999866 0.012811005
0.12919106 0.034999859 0.012811035
0.12880853 0.034999855 0.012811035
0.12842602 0.034999851 0.012811035
0.12804349 0.034999844 0.012811065
0.12766096 0.03499984 0.012811035
0.12727845 0.034999836 0.012811035
0.12689593 0.034999833 0.012811035
0.12699777 0.034999907 0.018793285
0.12770417 0.034999877 0.01583451
0.12662344 0.034999903 0.018793285
0.12732577 0.034999873 0.01583451
0.12624909 0.034999896 0.018793315
0.1269474 0.034999873 0.015834481
0.12587476 0.034999892 0.018793285
0.126569 0.034999862 0.01583451
0.12550041 0.034999888 0.018793285
0.12619063 0.034999859 0.01583451
0.13378131 0.034999918 0.012811005
0.1333988 0.034999914 0.012811005
0.13301627 0.034999907 0.012811035
0.13263375 0.034999903 0.012811005
0.13225123 0.0349999 0.012811005
0.13186871 0.034999892 0.012811035
0.13148618 0.034999888 0.012811035
0.13110366 0.034999885 0.012811005
0.13072115 0.034999881 0.012811005
0.13033861 0.034999873 0.012811035
0.13875413 0.034999978 0.012811005
0.13837159 0.034999974 0.012811005
0.13798907 0.034999967 0.012811035
0.13760655 0.034999963 0.012811005
0.13722402 0.034999959 0.012811005
0.13684151 0.034999952 0.012811035
0.13645898 0.034999948 0.012811035
0.13607645 0.034999944 0.012811005
0.13569394 0.034999941 0.012811005
0.13531139 0.034999933 0.012811035
0.13357936 0.035000026 0.012810975
0.13319685 0.035000023 0.012810975
0.13281432 0.035000015 0.012811005
0.13243179 0.035000011 0.012811005
0.13204926 0.035000008 0.012811005
0.13166673 0.035 0.012811005
0.13481432 0.035000015 0.012811005
0.13443178 0.035000011 0.012811005
0.13404927 0.035000008 0.012811005
0.13366674 0.035 0.012811005
0.13148984 0.034999959 0.018793315
0.1322448 0.034999933 0.01583451
0.1311155 0.034999952 0.018793315
0.13186643 0.034999929 0.01583451
0.13074116 0.034999948 0.018793315
0.13148803 0.034999926 0.01583451
0.13036683 0.034999944 0.018793315
0.13110965 0.034999922 0.015834481
0.13073125 0.034999914 0.01583451
0.13035287 0.034999911 0.01583451
0.13640708 0.034999985 0.01583451
0.13602868 0.034999982 0.015834481
0.13565031 0.034999978 0.015834481
0.13527191 0.03499997 0.01583451
0.13716385 0.034999993 0.01583451
0.13678545 0.034999989 0.01583451
0.13640708 0.034999985 0.01583451
0.13602868 0.034999982 0.015834481
0.13565031 0.034999978 0.015834481
0.13527191 0.03499997 0.01583451
0.13080925 0.03857246 0.019999981
0.13080925 0.038199779 0.019999981
0.13080925 0.037827097 0.019999981
0.13080925 0.037454419 0.019999981
0.13080925 0.037081737 0.019999981
0.13080925 0.036709055 0.019999981
0.13080925 0.036336377 0.019999981
0.13080925 0.035963695 0.019999981
0.13080925 0.035591014 0.019999981
0.13080925 0.035218332 0.019999981
0.13565424 0.037454482 0.019999981
0.13565424 0.0370818 0.019999981
0.13565424 0.036709122 0.019999981
0.13565424 0.036336441 0.019999981
0.13565424 0.035963759 0.019999981
0.13565424 0.035591077 0.019999981
0.13565424 0.035218395 0.019999981
0.13598193 0.035000015 0.018793315
0.1356076 0.035000011 0.018793315
0.13523325 0.035000008 0.018793315
0.15499955 0.023765132 0.0099524558
0.15499955 0.023378707 0.0099524558
0.15499955 0.022992283 0.0099524558
0.15499955 0.022605857 0.0099524558
0.15499957 0.022219434 0.009952426
0.15499957 0.02183301 0.009952426
0.15499957 0.021446586 0.009952426
0.15499957 0.021060159 0.009952426
0.15499957 0.020673735 0.009952426
0.15499957 0.020287311 0.009952426
0.15699986 0.023782136 0.0097504556
0.15699986 0.023395436 0.0097504556
0.15699986 0.023008734 0.0097504556
0.15699986 0.022622032 0.0097504556
0.15699986 0.02223533 0.0097504556
0.15699986 0.02184863 0.0097504556
0.15699986 0.021461928 0.0097504556
0.15699986 0.021075226 0.0097504556
0.15699986 0.020688526 0.0097504556
0.15699986 0.020301824 0.0097504556
0.15499957 0.02878866 0.009952426
0.15499957 0.028402233 0.009952426
0.15499957 0.028015809 0.009952426
0.15499957 0.027629385 0.009952426
0.15499957 0.027242959 0.009952426
0.15499957 0.026856534 0.009952426
0.15499957 0.02647011 0.009952426
0.15499957 0.026083684 0.009952426
0.15499957 0.025697259 0.009952426
0.15499957 0.025310835 0.009952426
0.15699986 0.028809255 0.0097504556
0.15699986 0.028422553 0.0097504556
0.15699986 0.028035853 0.0097504556
0.15699986 0.027649151 0.0097504556
0.15699986 0.027262449 0.0097504556
0.15699986 0.026875747 0.0097504556
0.15699986 0.026489047 0.0097504556
0.15699986 0.026102345 0.0097504556
0.15699986 0.025715644 0.0097504556
0.15699986 0.025328942 0.0097504556
0.14037952 0.034999959 0.0097207129
0.14347354 0.034999996 0.0097207129
0.14308679 0.034999993 0.0097207129
0.14270005 0.034999989 0.0097207129
0.14231329 0.034999985 0.0097207129
0.14192654 0.034999982 0.0097206831
0.14153978 0.034999974 0.0097207129
0.14115304 0.03499997 0.0097207129
0.14076629 0.034999967 0.0097207129
0.14037952 0.034999959 0.0097207129
0.15499955 0.03381218 0.0099524558
0.15499955 0.033425756 0.0099524558
0.15499955 0.033039331 0.0099524558
0.15499955 0.032652903 0.0099524558
0.15499957 0.032266483 0.009952426
0.15499957 0.031880058 0.009952426
0.15499957 0.031493634 0.009952426
0.15499957 0.031107208 0.009952426
0.15499957 0.030720783 0.009952426
0.15499957 0.030334359 0.009952426
0.15699986 0.033836372 0.0097504556
0.15699986 0.033449672 0.0097504556
0.15699986 0.033062972 0.0097504556
0.15699986 0.032676268 0.0097504556
0.15699986 0.032289568 0.0097504556
0.15699986 0.031902865 0.0097504556
0.15699986 0.031516165 0.0097504556
0.15699986 0.031129463 0.0097504556
0.15699986 0.030742763 0.0097504556
0.15699986 0.030356061 0.0097504556
0.15662313 0.035000157 0.0097207129
0.15623638 0.035000153 0.0097207129
0.15584964 0.035000149 0.0097206831
0.15546286 0.035000142 0.0097207129
0.15507612 0.035000138 0.0097207129
0.15662313 0.035000157 0.0097207129
0.15623638 0.035000153 0.0097207129
0.15584964 0.035000149 0.0097206831
0.15546288 0.035000145 0.0097206831
0.15507612 0.035000138 0.0097207129
0.14353164 0.029999945 0.01182425
0.14314781 0.029999942 0.01182425
0.14276399 0.02999994 0.01182422
0.14238016 0.029999938 0.01182422
0.14199635 0.029999934 0.01182425
0.14161253 0.029999932 0.01182425
0.14122871 0.02999993 0.01182422
0.14084488 0.029999929 0.01182422
0.14046106 0.029999925 0.01182425
0.14007723 0.029999923 0.01182425
0.14852133 0.029999977 0.01182425
0.14813751 0.029999973 0.01182428
0.14775369 0.029999971 0.01182425
0.14736986 0.02999997 0.01182425
0.14698604 0.029999966 0.01182425
0.14660221 0.029999964 0.01182425
0.14621839 0.029999962 0.01182422
0.14583457 0.02999996 0.01182422
0.14545074 0.029999956 0.01182425
0.14506692 0.029999955 0.01182425
0.15499954 0.023667155 0.011117369
0.15499954 0.023282323 0.011117369
0.15499954 0.022897491 0.011117369
0.15499954 0.022512659 0.011117369
0.15499955 0.022127829 0.011117339
0.15499955 0.021742998 0.011117339
0.15499955 0.021358166 0.011117339
0.15499955 0.020973334 0.011117339
0.15499955 0.020588502 0.011117339
0.15499955 0.02020367 0.011117339
0.15699983 0.02368607 0.010892659
0.15699983 0.023300931 0.010892659
0.15699983 0.02291579 0.010892659
0.15699983 0.022530651 0.010892659
0.15699986 0.022145515 0.01089263
0.15699986 0.021760374 0.01089263
0.15699986 0.021375235 0.01089263
0.15699986 0.020990096 0.01089263
0.15699986 0.020604957 0.01089263
0.15699986 0.020219818 0.01089263
0.15499955 0.02866997 0.011117339
0.15499955 0.028285138 0.011117339
0.15499955 0.027900307 0.011117339
0.15499955 0.027515475 0.011117339
0.15499955 0.027130643 0.011117339
0.15499955 0.026745811 0.011117339
0.15499954 0.026360977 0.011117369
0.15499954 0.025976146 0.011117369
0.15499954 0.025591314 0.011117369
0.15499954 0.025206482 0.011117369
0.15699986 0.028692884 0.01089263
0.15699986 0.028307745 0.01089263
0.15699986 0.027922604 0.01089263
0.15699986 0.027537465 0.01089263
0.15699986 0.027152326 0.01089263
0.15699986 0.026767187 0.01089263
0.15699986 0.026382048 0.01089263
0.15699983 0.025996905 0.010892659
0.15699983 0.025611766 0.010892659
0.15699983 0.025226627 0.010892659
0.15499945 0.023661779 0.015682548
0.15499945 0.023283191 0.015682548
0.15499945 0.022904603 0.015682548
0.15499945 0.022526015 0.015682548
0.15499946 0.022147428 0.015682518
0.15499946 0.02176884 0.015682518
0.15499946 0.021390252 0.015682518
0.15499946 0.021011664 0.015682518
0.15499946 0.020633075 0.015682518
0.15499946 0.020254485 0.015682518
0.15540701 0.021429332 0.019999981
0.15540701 0.021056648 0.019999981
0.15540701 0.020683965 0.019999981
0.15540701 0.020311279 0.019999981
0.1550343 0.022174697 0.019999981
0.1550343 0.021802014 0.019999981
0.1550343 0.02142933 0.019999981
0.1550343 0.021056646 0.019999981
0.1550343 0.020683961 0.019999981
0.1550343 0.020311277 0.019999981
0.15499946 0.028583433 0.015682518
0.15499945 0.028204842 0.015682548
0.15499945 0.027826253 0.015682548
0.15499945 0.027447665 0.015682548
0.15499945 0.027069077 0.015682548
0.15499945 0.026690489 0.015682548
0.15499945 0.026311899 0.015682548
0.15499945 0.02593331 0.015682548
0.15499945 0.025554722 0.015682548
0.15499945 0.025176134 0.015682548
0.15540701 0.025156172 0.019999981
0.1550343 0.029628377 0.019999981
0.1550343 0.029255694 0.019999981
0.1550343 0.02888301 0.019999981
0.1550343 0.028510325 0.019999981
0.1550343 0.028137641 0.019999981
0.1550343 0.027764957 0.019999981
0.1550343 0.027392274 0.019999981
0.1550343 0.02701959 0.019999981
0.1550343 0.026646907 0.019999981
0.14028421 0.034999996 0.012811005
0.14028421 0.034999996 0.012811005
0.14028421 0.034999996 0.012811005
0.14028421 0.034999996 0.012811005
0.14028421 0.034999996 0.012811005
0.14028421 0.034999996 0.012811005
0.14028421 0.034999996 0.012811005
0.14028421 0.034999996 0.012811005
0.14028421 0.034999996 0.012811005
0.14028421 0.034999996 0.012811005
0.14410946 0.035000045 0.012810975
0.14372694 0.035000041 0.012810975
0.1433444 0.035000034 0.012811005
0.14296189 0.03500003 0.012811005
0.14257936 0.035000026 0.012810975
0.14219683 0.035000023 0.012810975
0.14181432 0.035000015 0.012811005
0.14143178 0.035000011 0.012811005
0.14104927 0.035000008 0.012811005
0.14066674 0.035 0.012811005
0.14869976 0.035000097 0.012811005
0.14831723 0.03500009 0.012811035
0.14793471 0.035000086 0.012811035
0.14755219 0.035000082 0.012811035
0.14716965 0.035000078 0.012811005
0.14678714 0.035000075 0.012811005
0.14640462 0.035000071 0.012811005
0.14602208 0.035000067 0.012811005
0.14563957 0.035000063 0.012810975
0.14525703 0.035000056 0.012811005
0.14049923 0.03559114 0.019999981
0.14049923 0.035218455 0.019999981
0.14084838 0.035000075 0.018793315
0.14170453 0.035000052 0.015834481
0.14047405 0.035000071 0.018793315
0.14132613 0.035000045 0.015834481
0.1400997 0.035000067 0.018793285
0.14094773 0.035000041 0.015834481
0.14056936 0.035000037 0.015834481
0.14019096 0.035000034 0.015834481
0.14534424 0.035963882 0.019999951
0.14534424 0.0355912 0.019999951
0.14534424 0.035218518 0.019999951
0.14571485 0.035000138 0.018793285
0.1466236 0.035000112 0.015834481
0.1453405 0.035000131 0.018793285
0.1462452 0.035000104 0.015834481
0.14586681 0.035000101 0.015834481
0.14548841 0.035000097 0.015834481
0.14511004 0.035000093 0.015834481
0.15499954 0.03367278 0.011117369
0.15499954 0.03328795 0.011117369
0.15499954 0.032903116 0.011117369
0.15499954 0.032518286 0.011117369
0.15499955 0.032133456 0.011117339
0.15499955 0.031748626 0.011117339
